ncols        615
nrows        38
xllcorner    450276.719734
yllcorner    6019063.10387
cellsize     18.758564863640
NODATA_value 32767
891 888 886 885 884 884 884 884 884 884 884 884 884 884 884 885 885 886 887 888 889 890 890 889 889 888 888 889 889 887 886 884 883 883 882 883 883 883 883 884 884 884 884 883 883 882 882 883 882 882 884 884 884 884 884 884 884 884 884 884 884 884 884 884 884 882 880 879 878 879 879 878 878 878 878 879 879 879 879 878 877 877 878 878 879 880 880 882 881 880 879 879 879 880 880 881 881 880 880 881 882 884 885 885 885 885 883 881 884 886 889 891 893 894 891 889 890 892 893 891 891 891 893 893 894 891 890 889 890 892 892 891 889 890 892 893 894 895 894 894 893 893 894 896 897 898 897 897 897 897 897 897 896 895 900 904 904 901 900 904 912 915 914 911 910 907 905 906 907 909 909 910 911 911 911 912 912 913 913 913 914 914 914 914 914 915 915 916 916 915 915 914 916 918 918 916 915 915 915 916 916 917 918 919 921 922 923 922 921 921 923 923 925 925 925 925 925 923 924 924 924 925 925 925 925 925 925 925 925 924 924 924 923 923 922 922 923 923 923 924 924 926 926 927 927 927 927 927 927 927 928 928 928 928 928 928 928 927 926 925 924 924 924 924 924 925 925 927 927 928 928 927 927 927 926 925 924 923 925 927 929 931 932 933 933 934 934 933 933 932 932 932 932 933 933 934 935 936 938 939 939 937 933 931 929 928 926 925 926 927 927 928 928 928 927 927 927 926 925 925 925 923 923 923 922 922 922 923 923 922 921 920 918 917 917 916 915 915 916 916 916 915 915 916 916 917 916 915 913 912 911 913 914 916 917 918 919 920 922 922 922 922 923 923 924 924 924 924 924 924 924 923 924 924 925 926 926 926 927 927 927 927 926 926 926 929 933 936 936 936 935 936 937 938 939 939 939 939 939 939 940 940 941 941 940 940 939 939 938 938 939 939 939 939 940 940 940 941 943 945 944 943 942 942 942 941 940 940 939 939 939 939 939 939 939 938 938 938 938 938 939 939 938 938 937 937 937 938 938 938 939 939 940 941 941 941 942 942 942 941 941 940 940 940 940 940 940 939 938 938 937 937 938 938 939 939 939 940 939 938 936 935 935 933 932 932 931 931 931 931 931 929 929 928 927 926 924 923 922 921 920 922 924 924 924 925 926 927 927 927 928 931 931 932 933 933 933 935 936 937 939 940 941 942 942 944 944 942 942 941 941 940 942 942 941 941 940 940 940 939 938 937 937 937 936 935 933 931 932 933 933 933 933 932 932 932 933 933 933 932 932 931 931 930 931 932 932 934 935 934 933 932 931 931 930 930 930 929 928 927 926 926 926 927 927 927 927 927 927 927 928 929 929 929 927 923 920 919 922 925 929 932 932 931 930 929 929 929 928 928 928 927 927 926 926
889 887 885 884 883 883 883 883 883 883 883 883 884 884 885 885 886 886 886 888 888 890 889 889 889 888 888 888 887 886 884 882 881 883 883 883 883 883 883 884 884 884 884 883 883 883 883 883 882 882 885 884 884 884 884 884 884 884 884 884 884 884 884 884 884 883 882 880 878 878 878 877 877 877 878 878 879 879 878 878 877 877 879 879 880 881 881 882 881 880 880 880 880 881 880 881 882 882 881 882 883 884 885 886 886 886 884 884 887 889 892 894 893 893 890 888 889 890 892 892 892 891 892 891 891 889 887 885 885 889 892 891 889 890 892 893 894 895 894 894 893 893 895 897 897 899 898 898 898 898 897 896 895 894 896 899 900 903 908 911 915 912 910 908 907 905 905 907 908 909 910 910 911 912 912 912 912 913 913 913 913 913 914 914 914 914 914 915 915 914 914 914 916 917 916 916 914 915 915 916 916 917 919 920 921 923 922 922 922 922 923 924 926 926 926 925 924 924 923 923 923 923 924 924 924 924 924 924 924 924 924 923 923 922 921 921 922 922 923 923 924 925 925 926 926 926 926 926 927 927 927 927 927 927 927 927 927 927 925 925 923 924 924 924 924 925 925 926 927 928 928 927 927 927 926 925 924 923 925 926 928 931 932 933 933 933 933 933 932 932 932 932 932 933 933 935 937 938 940 940 940 936 934 931 929 928 926 925 926 928 928 928 928 927 926 926 926 925 925 924 924 924 923 923 922 922 922 923 923 923 921 920 918 917 917 916 916 916 917 917 916 915 915 916 916 917 916 915 913 912 911 912 913 915 917 918 920 921 922 923 923 923 923 923 923 923 924 924 924 923 923 923 924 924 925 926 926 926 927 927 927 926 926 926 926 929 932 935 935 935 934 935 936 937 938 939 938 938 938 939 939 939 940 941 940 940 938 938 938 938 939 939 939 939 940 940 940 941 942 943 945 943 942 942 942 941 940 940 939 939 939 939 939 939 939 938 938 938 938 938 939 938 938 938 937 937 937 938 938 938 939 939 940 941 941 942 942 942 942 942 941 941 941 941 941 940 940 939 938 938 937 937 937 938 938 938 939 939 938 938 936 935 935 933 932 932 931 931 931 931 931 930 929 929 927 926 925 925 923 922 923 921 922 923 923 924 925 926 927 928 929 930 930 931 931 932 933 935 936 938 938 940 940 941 942 944 945 943 943 942 942 943 943 943 942 941 941 940 940 939 939 939 939 938 936 936 936 933 934 934 935 935 934 934 932 932 932 933 932 932 932 932 931 931 931 932 933 934 935 934 933 931 930 930 930 930 930 929 928 928 926 926 926 926 926 927 927 927 927 927 927 928 928 928 926 923 920 918 920 923 927 930 931 931 930 929 929 929 928 928 928 927 927 926 925
888 886 884 883 883 882 883 883 882 882 882 883 884 884 885 885 886 886 886 887 888 889 889 889 889 888 887 886 884 884 882 881 881 883 883 883 884 884 884 884 884 884 884 883 883 883 883 883 882 882 885 884 884 884 884 884 884 884 884 884 884 884 884 884 884 884 883 881 879 878 878 877 877 877 878 878 879 879 878 878 877 877 880 880 881 882 882 881 881 880 880 881 880 879 879 880 882 883 883 884 885 884 884 886 887 887 886 889 890 893 891 889 890 891 890 887 888 889 890 891 891 890 890 889 887 885 884 883 883 886 889 890 889 890 892 893 894 895 894 893 893 893 895 897 898 899 898 898 898 898 898 897 896 895 896 899 903 910 916 913 910 908 907 906 906 906 906 907 909 909 911 911 911 912 912 912 912 913 913 913 913 913 913 913 913 913 914 914 914 914 913 913 915 915 914 914 914 915 915 916 916 917 919 920 921 922 922 923 923 923 924 925 926 927 926 924 924 923 922 922 923 923 923 923 923 923 923 923 923 923 923 922 922 922 921 921 921 921 922 922 923 924 925 925 925 926 925 926 927 927 926 926 927 927 926 927 927 926 925 924 923 923 924 924 924 925 925 926 927 928 927 927 927 927 926 925 924 923 925 926 928 930 931 932 932 932 932 932 932 932 931 932 932 933 933 936 938 940 942 941 939 937 934 932 929 928 926 925 926 929 929 928 927 927 926 925 925 925 924 924 924 923 923 923 922 922 922 923 923 923 921 920 918 917 917 917 917 917 918 917 916 915 915 916 917 917 917 914 913 912 910 912 913 916 917 918 920 921 922 923 923 923 923 923 923 923 923 923 923 923 924 923 924 924 925 926 926 926 927 926 926 926 926 925 926 929 931 934 933 933 933 934 935 936 937 939 938 938 938 938 939 939 939 940 939 939 938 937 938 938 938 938 938 939 939 939 939 940 940 942 943 943 943 942 942 942 941 940 939 939 939 939 939 939 939 939 938 938 938 938 938 938 938 938 937 937 937 938 938 938 939 939 941 941 942 942 942 942 943 943 942 942 942 942 941 940 939 938 938 938 937 937 937 937 937 938 938 939 938 937 937 935 935 933 932 932 931 931 931 931 931 930 929 928 928 927 926 926 925 925 927 925 921 922 923 924 925 925 927 927 929 929 929 930 931 932 933 935 936 937 938 939 940 941 943 943 945 944 944 944 944 945 944 943 942 941 941 941 940 940 941 939 939 939 938 937 936 935 935 935 936 936 935 935 933 932 932 932 932 932 932 932 931 931 931 932 933 934 934 933 932 930 929 929 929 929 930 929 928 927 926 926 926 926 926 926 926 927 927 928 928 928 928 929 925 923 922 920 921 922 926 929 930 930 929 929 929 929 928 928 928 927 927 926 925
887 884 883 883 883 882 883 883 882 882 882 883 884 884 885 885 886 886 887 887 887 888 889 889 889 887 886 884 883 881 881 881 881 882 883 883 884 884 884 884 884 884 884 883 883 883 883 883 882 882 885 884 884 884 884 884 884 884 884 884 884 884 884 884 884 884 884 881 879 878 878 877 877 877 878 879 881 880 879 878 877 877 880 881 882 882 882 881 880 880 880 881 881 881 880 881 882 884 884 884 885 884 885 885 886 886 887 890 893 894 890 886 887 888 888 887 888 889 889 890 890 889 888 886 883 882 882 883 883 884 887 889 889 890 891 893 894 894 894 893 893 893 895 896 899 899 898 896 896 896 897 897 898 898 902 907 911 913 910 908 906 906 906 906 906 907 907 908 909 910 910 911 911 912 912 912 912 913 913 912 912 913 913 913 913 913 913 913 913 913 913 913 913 913 913 914 914 915 915 916 916 917 919 920 922 922 923 923 924 924 925 925 926 927 926 924 923 922 921 922 922 922 922 923 922 923 922 922 923 923 923 922 922 921 921 920 921 921 921 922 922 923 923 924 924 924 925 926 926 926 926 926 926 926 926 927 926 926 925 923 923 923 923 923 923 924 925 926 927 927 927 927 927 927 926 925 924 923 925 926 928 930 931 930 930 930 930 930 930 931 932 932 932 933 933 936 940 941 941 938 937 936 934 931 930 929 927 926 927 929 928 927 927 926 926 925 925 924 924 924 923 923 922 922 922 922 922 923 923 923 921 920 918 917 917 918 918 918 917 917 916 915 916 916 917 917 917 915 914 912 911 912 914 916 918 919 920 921 923 923 923 923 923 923 923 923 924 923 924 925 925 923 924 924 925 926 926 926 926 926 926 926 926 925 925 928 929 931 933 932 933 934 935 936 936 938 938 937 937 937 938 938 938 939 939 938 937 937 937 937 937 937 938 938 938 939 939 939 940 940 941 941 941 942 942 943 941 941 939 939 939 939 939 939 939 939 939 939 939 938 938 938 938 938 938 938 938 938 938 938 939 940 941 942 942 942 942 943 943 943 943 943 942 942 941 940 939 938 938 937 937 937 937 936 937 937 938 939 938 936 936 935 934 933 932 932 931 931 931 931 931 930 929 929 928 928 928 927 927 929 930 929 925 922 922 923 924 925 926 927 928 928 929 929 931 932 933 935 936 937 938 939 940 941 942 943 944 945 945 945 945 945 944 943 942 941 941 941 941 941 941 940 940 939 939 938 936 936 936 937 937 937 937 935 934 933 932 932 933 933 933 932 932 931 931 932 932 933 933 932 931 930 928 928 929 930 930 929 929 927 926 926 926 926 926 926 927 928 928 928 928 928 928 928 928 926 924 922 922 924 925 928 929 929 928 928 928 928 928 928 928 927 926 926 925
885 883 883 883 882 882 882 882 882 882 883 883 884 885 885 886 886 887 887 887 887 887 888 887 887 885 884 883 881 881 882 882 882 882 883 883 884 885 885 884 884 884 884 883 883 883 883 884 883 884 884 884 883 883 883 880 882 885 884 884 884 884 884 884 884 884 884 881 879 878 878 877 878 878 879 881 882 881 880 879 877 878 880 882 882 882 882 881 880 880 880 882 883 883 882 882 884 885 882 882 885 884 885 884 885 884 885 887 891 891 889 886 886 886 887 887 887 888 888 889 889 888 887 882 881 881 882 882 883 885 886 887 889 890 891 892 893 893 893 893 892 892 894 895 898 898 897 895 894 893 895 896 899 899 903 910 914 909 906 905 906 906 906 906 906 907 907 907 909 909 910 911 911 912 912 912 912 912 912 912 912 912 912 912 912 912 912 913 913 912 912 912 912 912 913 914 914 915 915 916 916 917 919 920 922 922 923 923 924 924 925 925 926 927 926 924 923 921 921 921 921 921 921 922 922 922 922 922 922 922 922 922 921 920 920 919 920 920 921 921 921 922 922 923 923 923 924 925 925 925 925 925 925 925 926 926 926 925 924 923 922 922 923 923 923 924 924 926 926 927 927 927 927 926 926 925 924 923 925 926 928 929 930 930 929 929 929 930 931 931 932 932 932 933 933 936 939 943 938 936 935 934 933 931 930 929 927 927 928 929 928 927 927 926 926 925 925 924 924 924 923 923 922 922 922 922 922 923 923 923 921 920 918 917 918 918 918 918 917 917 916 915 916 916 917 918 917 916 915 914 913 914 915 916 918 919 920 921 923 923 923 923 923 923 924 924 927 925 926 926 925 923 924 924 925 926 927 926 926 926 926 926 925 925 925 926 927 930 931 931 932 933 935 935 937 937 937 937 936 936 937 937 938 938 938 937 937 936 936 936 937 937 937 937 938 938 938 938 939 939 940 940 941 942 942 943 942 941 939 939 939 939 939 939 939 939 939 939 939 939 938 938 938 938 938 938 938 938 938 938 939 940 941 942 942 943 943 943 943 943 943 943 943 942 941 940 939 938 938 937 937 937 936 936 937 937 938 938 937 936 935 935 934 933 932 932 931 931 931 931 931 930 929 929 928 929 929 929 929 931 930 930 930 924 922 922 923 925 926 927 928 928 929 929 931 932 933 935 936 938 938 939 940 941 941 943 944 944 944 944 946 946 944 944 943 942 942 942 941 941 941 941 941 940 939 938 937 936 936 937 938 938 938 936 935 932 933 933 933 933 933 933 932 931 931 931 931 931 932 931 930 929 928 929 930 930 931 930 929 927 926 926 927 927 927 927 928 928 929 929 928 927 927 927 928 927 926 924 925 925 926 927 929 929 927 928 928 928 928 928 928 927 926 925 925
884 882 882 882 881 881 882 882 882 883 883 884 884 885 885 886 886 887 887 887 887 887 886 885 884 883 881 881 882 882 882 882 883 883 884 884 885 886 886 885 884 884 884 883 883 883 883 884 884 884 883 883 883 883 883 882 883 885 884 884 884 884 884 884 884 884 884 881 879 878 878 879 880 880 882 883 884 883 882 880 879 879 881 882 881 881 882 881 880 880 881 884 884 884 885 884 885 885 880 882 885 884 884 884 884 884 882 882 883 889 888 886 886 886 886 886 886 886 887 888 888 888 885 882 881 881 882 882 882 884 886 887 890 890 890 891 892 892 892 892 892 892 893 894 896 897 896 894 894 893 895 896 898 899 904 910 912 908 906 906 906 906 906 906 906 907 907 907 908 909 910 910 911 911 911 912 912 911 911 911 911 911 912 912 912 912 912 913 912 912 912 912 912 912 913 914 914 915 915 915 916 917 919 920 922 922 923 923 924 924 925 925 926 927 926 924 923 921 921 920 920 920 920 921 921 921 922 922 921 921 921 921 920 919 919 918 919 919 920 920 920 921 921 922 922 922 923 924 924 924 924 924 925 925 926 926 926 925 924 923 922 922 922 922 923 923 924 925 926 927 927 927 926 926 925 924 924 923 924 926 927 929 929 929 929 929 930 930 931 932 932 932 933 934 934 938 941 941 935 933 932 932 932 931 931 929 928 928 929 929 928 927 927 926 926 925 925 924 924 923 923 923 922 922 922 922 922 923 923 922 921 920 918 918 918 918 918 918 917 917 916 916 916 917 917 918 918 918 917 916 915 916 917 918 918 919 920 921 922 923 923 923 923 924 927 930 933 929 927 925 924 923 924 925 926 927 927 927 927 926 926 925 924 924 923 924 927 928 929 931 932 933 934 934 936 936 937 936 936 936 936 937 937 938 938 937 936 936 936 936 936 937 937 937 937 938 938 938 938 938 939 939 940 941 941 942 942 940 939 939 939 939 938 939 939 939 939 939 939 939 938 938 938 938 938 938 938 938 938 939 939 941 941 942 942 943 943 943 943 943 943 943 943 942 941 940 939 938 938 937 937 936 936 936 936 936 937 937 936 935 935 935 934 933 932 931 931 931 931 931 931 930 930 929 929 929 930 930 930 931 931 930 930 928 922 921 923 924 925 927 927 928 929 930 931 932 933 935 936 938 938 939 940 941 942 943 943 944 944 945 947 947 945 945 944 942 942 942 942 942 942 942 942 941 940 938 937 936 937 937 938 939 938 936 935 933 933 933 933 934 933 933 932 932 931 931 931 931 931 930 930 929 928 929 930 930 931 930 929 927 926 926 928 929 929 929 930 930 928 927 927 927 927 927 927 927 927 926 927 927 927 927 928 928 927 927 927 927 927 927 927 927 926 925 925
883 882 881 881 880 880 881 882 882 883 883 884 884 884 884 885 885 886 886 886 886 886 884 883 882 881 881 881 883 883 883 884 885 886 886 887 886 887 886 885 885 884 884 883 883 882 883 884 884 884 883 883 883 883 883 885 884 883 884 883 883 884 884 884 884 884 884 881 879 879 880 880 881 883 884 884 883 883 883 883 882 881 881 881 879 879 881 881 881 881 884 885 886 886 886 886 885 885 883 885 884 884 883 884 884 884 883 883 884 885 886 886 886 886 885 885 884 884 886 886 887 887 884 881 880 881 881 882 882 885 886 888 890 891 891 891 891 891 891 891 891 892 893 894 895 896 896 895 894 894 895 897 898 899 902 906 909 909 906 906 906 906 906 906 906 907 907 907 908 909 910 910 911 911 911 912 912 911 911 911 911 911 911 912 912 912 912 912 912 912 912 912 912 912 913 913 914 914 915 915 915 916 918 920 922 922 923 923 924 924 925 925 926 927 926 924 922 920 920 920 919 919 919 920 920 921 921 921 921 920 920 920 919 918 918 918 918 918 919 919 920 920 920 920 921 922 922 923 923 923 924 924 924 924 925 925 926 925 924 922 922 922 922 922 922 923 924 925 927 927 927 927 926 926 925 924 924 923 924 925 927 929 929 929 929 929 930 930 931 932 933 934 934 936 936 940 941 937 933 930 930 930 931 931 931 930 929 928 929 928 928 926 926 926 926 925 925 924 924 923 923 922 922 922 922 922 922 922 922 922 921 921 919 919 919 919 919 918 918 917 916 916 917 917 918 920 920 919 919 918 918 918 919 918 918 919 920 921 922 922 922 922 922 924 926 929 933 927 927 926 925 925 925 926 927 927 927 928 928 927 927 925 923 922 922 923 925 926 928 930 931 932 933 933 935 936 936 936 936 936 936 937 937 937 937 937 936 936 936 936 936 937 937 937 937 937 938 938 937 938 939 939 939 939 941 941 940 939 939 939 939 938 938 938 938 938 939 939 939 939 939 939 938 938 938 938 938 938 939 939 940 942 942 942 943 943 943 943 943 944 944 944 944 943 942 940 939 938 938 938 937 936 936 935 935 935 936 936 935 935 934 934 934 933 932 931 931 931 931 931 931 930 930 929 929 929 930 930 931 930 928 928 927 929 928 923 921 923 925 926 927 928 929 930 931 932 934 936 937 938 939 939 941 941 942 943 944 944 945 946 947 948 946 945 944 942 942 942 942 942 942 942 943 942 940 939 938 936 937 938 938 940 938 937 935 934 933 933 934 934 934 933 932 932 931 931 931 931 931 930 930 929 928 929 929 930 931 930 929 927 926 926 928 929 930 930 931 930 927 924 925 926 926 926 926 926 926 927 927 927 927 927 927 926 926 926 926 926 927 927 927 926 926 926 925
882 881 880 880 880 879 880 881 882 883 883 884 884 883 883 883 884 885 885 885 884 884 882 881 881 881 882 882 883 883 884 885 887 888 888 888 887 887 886 885 884 884 883 883 883 882 883 884 883 883 883 883 883 883 884 884 882 882 882 881 881 883 884 884 884 884 884 882 880 881 882 882 884 884 884 884 882 880 881 882 882 880 880 878 878 878 880 880 880 880 883 886 887 886 886 886 885 885 883 882 882 882 883 884 884 884 884 884 885 885 885 885 885 885 884 884 884 883 884 885 885 885 883 881 880 881 881 882 883 885 887 889 890 891 891 891 891 891 891 891 891 892 893 894 895 896 896 895 895 895 896 898 899 900 902 904 906 908 906 906 906 906 906 906 906 907 907 907 908 909 910 910 910 911 911 911 911 911 911 911 911 911 911 911 911 911 912 912 912 912 911 911 912 912 913 913 914 914 914 915 915 916 918 919 921 922 923 923 924 924 925 925 926 926 925 924 922 920 919 919 919 919 919 919 919 920 921 920 920 920 920 919 918 917 917 916 917 918 918 918 918 919 919 919 920 921 922 923 923 923 923 923 924 924 925 926 926 925 924 922 922 921 922 922 922 923 924 926 927 928 927 927 927 926 925 924 924 923 924 925 927 928 929 929 929 929 930 931 932 932 933 935 936 937 939 941 938 934 931 929 929 930 930 930 929 929 929 929 928 928 927 926 926 926 925 925 925 924 924 923 922 922 922 922 922 921 921 921 921 921 920 920 919 919 919 919 919 919 918 918 917 917 917 919 919 921 921 920 920 919 919 919 919 919 919 919 920 921 922 922 922 922 922 925 927 929 928 923 925 927 927 926 926 927 928 928 928 929 929 929 929 926 924 923 921 923 924 925 927 929 930 931 932 933 934 936 936 936 936 936 936 936 937 937 937 937 936 936 936 936 936 936 936 937 937 937 937 937 937 938 938 938 938 939 940 939 939 938 938 938 938 938 938 938 938 938 939 939 939 939 939 939 939 939 939 939 939 939 940 940 941 941 942 942 943 943 943 944 944 944 944 944 944 943 942 941 940 939 938 938 937 937 936 935 934 934 934 934 934 934 934 934 934 933 933 932 931 931 931 931 931 931 930 929 929 930 930 931 931 931 928 927 925 927 930 928 922 922 924 926 927 929 929 930 931 932 934 935 937 938 938 939 941 941 942 943 944 945 945 947 948 948 947 945 944 942 942 942 942 942 942 942 943 943 941 940 938 937 937 938 939 940 939 937 935 934 933 933 934 934 934 933 932 932 931 931 931 931 931 930 930 929 928 928 929 930 930 930 929 927 926 926 928 929 930 931 930 929 928 925 925 924 924 924 925 925 925 926 926 925 925 925 925 925 925 925 926 926 927 927 927 926 926 926 925
881 880 880 880 879 879 880 881 881 882 882 883 883 883 883 883 883 885 884 884 883 882 881 880 882 883 883 883 883 883 884 885 886 888 888 888 888 888 886 885 884 883 883 883 884 884 884 883 883 883 883 883 883 884 882 879 878 879 879 880 881 883 882 882 882 883 884 884 882 882 883 883 880 883 884 884 883 881 882 881 880 877 878 878 878 879 879 880 880 880 882 886 887 886 886 885 884 882 880 880 881 882 883 884 884 885 885 885 885 884 885 885 885 885 884 884 884 883 883 885 885 884 882 880 880 880 881 882 883 885 887 890 891 891 891 891 891 891 891 891 891 891 893 894 896 897 897 896 896 896 897 898 900 901 902 904 905 907 907 907 907 907 907 907 907 907 907 907 908 909 910 910 910 911 911 911 911 910 910 910 910 910 911 911 911 911 911 911 911 911 911 911 911 912 913 913 914 914 914 915 915 916 918 919 921 922 922 923 924 924 924 925 925 925 923 922 921 919 919 919 918 918 918 919 919 920 921 920 920 920 920 919 918 917 916 915 916 917 918 917 918 918 919 919 919 920 922 923 923 923 923 923 924 924 925 926 926 925 924 922 921 921 921 922 922 923 924 926 927 928 927 927 927 926 926 925 924 923 924 925 926 927 928 929 929 930 930 931 931 931 931 935 938 939 941 940 937 934 930 929 929 929 929 930 929 929 928 928 927 927 926 925 925 925 925 925 925 924 923 922 922 922 922 922 921 921 921 921 920 920 920 919 919 919 919 920 920 919 919 918 918 918 918 920 921 922 922 921 921 920 920 920 919 919 919 920 920 921 922 922 922 921 921 924 928 928 925 922 924 926 927 927 928 928 928 928 929 930 930 931 930 928 926 923 921 922 923 925 926 927 929 930 932 933 933 935 935 935 935 935 936 936 937 937 937 937 936 936 936 936 936 936 936 936 937 937 937 937 937 937 937 937 938 938 938 938 938 937 937 937 937 937 937 937 938 938 939 939 939 939 939 938 939 939 939 939 940 940 940 941 941 941 942 942 942 943 943 944 944 944 944 945 944 943 942 941 940 939 938 937 937 938 937 935 933 933 933 933 933 933 933 933 933 933 933 932 932 932 932 932 931 931 930 929 929 930 930 931 931 931 930 928 926 927 931 930 924 922 923 926 927 928 929 930 930 932 933 935 936 937 938 940 942 942 943 944 944 946 946 948 949 949 948 946 944 942 942 942 942 942 943 943 943 943 942 941 938 937 938 938 939 940 940 937 936 935 934 934 934 934 934 933 932 932 931 931 931 930 930 930 929 928 928 928 929 930 930 929 929 927 927 928 929 930 931 930 929 928 927 926 925 925 924 924 924 924 925 925 925 924 924 923 924 924 924 925 925 926 926 926 926 926 926 926 926
880 879 879 879 879 879 879 880 880 881 881 882 882 882 883 883 884 884 883 882 881 880 881 882 882 884 884 883 883 883 884 885 886 888 888 889 889 889 886 885 883 883 883 884 884 883 883 883 883 883 883 885 885 883 880 878 878 879 879 880 881 881 881 881 882 882 884 884 883 884 884 884 882 884 884 883 883 882 881 880 879 877 878 879 879 879 880 882 883 884 885 887 886 886 884 884 882 880 878 879 881 882 883 884 884 884 885 885 885 884 884 883 883 884 884 884 884 883 882 884 883 882 881 879 880 880 881 882 883 886 887 890 892 892 891 891 891 891 891 891 891 892 894 895 897 898 898 897 897 897 899 899 901 902 903 905 906 907 907 908 908 908 908 908 908 907 907 907 908 909 909 910 910 911 911 911 910 910 909 909 909 910 910 910 911 911 911 911 911 911 911 911 911 912 913 913 914 914 914 915 915 916 918 919 921 922 922 923 924 924 924 923 923 923 922 920 919 919 919 918 918 918 918 919 919 920 920 920 920 920 919 919 918 916 916 915 916 916 917 917 918 918 918 918 919 920 922 923 923 923 923 923 923 924 925 926 926 925 924 922 921 921 921 922 922 923 924 926 927 927 928 927 927 927 925 925 924 923 923 924 925 926 927 927 928 929 931 930 930 930 931 933 937 940 939 937 936 933 930 928 929 929 929 930 929 928 927 926 926 926 925 925 925 925 925 925 925 924 923 922 922 922 922 921 921 921 921 920 920 920 919 919 919 920 919 920 920 920 920 919 918 918 919 921 922 922 922 922 921 920 920 920 919 919 919 920 920 921 922 922 921 921 922 925 928 927 925 922 924 925 927 928 928 928 928 928 929 930 930 932 931 928 926 923 921 922 923 924 925 927 928 929 931 932 932 934 934 934 934 934 935 935 936 936 936 936 936 935 936 936 936 936 936 936 936 936 936 936 936 936 936 936 936 936 937 937 936 936 936 936 936 936 936 937 937 938 938 938 938 938 938 937 938 938 938 939 939 940 940 940 940 941 941 941 942 942 943 943 944 944 944 945 944 943 942 941 939 938 938 936 936 938 937 934 932 932 932 933 932 932 932 933 932 933 933 933 932 932 932 932 932 931 930 929 928 929 931 931 931 931 931 930 929 929 932 929 926 922 922 925 927 928 929 929 929 931 932 935 936 937 939 940 943 943 944 945 945 946 947 948 950 951 948 947 945 943 942 942 942 942 943 943 943 943 943 941 939 938 938 939 939 941 940 938 937 935 934 934 934 934 934 933 932 931 931 931 930 930 930 929 929 928 928 928 929 929 930 929 929 928 928 929 930 931 930 929 927 926 926 926 925 925 924 924 924 924 924 924 924 924 923 923 923 923 924 924 924 925 926 926 926 926 925 925 926
878 878 878 878 879 879 879 879 879 880 880 881 881 881 881 881 881 881 880 880 880 881 881 883 884 885 885 884 884 884 884 885 887 888 888 888 888 888 886 885 883 884 884 883 883 883 883 883 883 884 885 885 884 883 880 879 878 879 879 880 880 881 881 882 883 882 884 884 884 884 884 884 883 884 884 883 883 883 881 880 879 878 878 879 880 881 882 885 887 888 887 887 885 884 880 882 882 880 878 879 881 882 883 884 884 884 883 884 884 884 882 882 882 883 883 883 883 884 882 883 882 881 880 880 880 880 881 882 883 885 888 891 893 893 892 891 891 891 891 892 892 892 894 896 897 899 899 898 898 898 900 901 902 903 904 905 906 906 907 908 908 909 909 908 908 907 907 907 908 909 910 910 910 910 910 910 909 909 909 908 909 909 909 910 911 911 910 911 911 911 911 911 911 912 913 913 914 914 914 915 915 916 918 919 921 922 922 923 923 923 923 922 922 922 920 919 919 918 918 918 918 918 917 918 918 919 919 919 919 919 919 918 918 916 916 915 915 916 916 917 917 917 917 917 919 920 922 923 923 923 923 923 923 924 925 926 927 925 924 922 921 921 921 922 922 923 924 925 926 927 927 927 927 927 926 924 924 922 923 923 924 925 925 926 928 929 931 932 932 930 929 936 940 938 937 935 933 931 929 927 928 929 929 929 928 927 927 925 925 925 925 925 925 925 925 925 925 924 923 922 922 922 922 921 921 921 921 920 920 920 919 919 919 920 920 920 920 920 920 920 919 919 920 921 922 923 923 922 922 921 920 920 920 919 918 920 920 921 922 922 922 922 924 928 928 927 924 922 924 925 926 927 928 929 929 929 930 930 930 930 929 927 926 923 921 922 923 924 925 926 927 929 930 931 932 933 933 933 933 933 934 934 934 934 934 935 934 933 934 935 935 935 936 936 936 935 935 935 935 935 935 935 935 935 936 935 935 935 935 935 935 936 936 936 936 937 937 937 936 937 936 936 936 937 938 939 939 940 940 940 940 941 941 941 941 942 943 943 944 944 944 944 943 943 941 940 938 938 937 936 936 937 938 933 932 932 932 932 931 932 932 932 932 933 933 933 933 933 932 932 932 931 930 929 928 929 930 931 932 931 931 932 932 931 930 927 925 924 921 922 926 927 927 928 929 931 932 934 935 938 939 941 943 944 945 946 946 947 947 947 950 952 949 948 945 943 943 943 942 942 942 942 943 943 942 940 939 939 939 939 940 941 940 938 937 935 935 934 934 933 933 932 932 931 931 931 930 930 930 929 929 928 928 928 929 929 930 929 930 930 930 931 931 931 928 926 926 925 925 926 925 925 924 924 924 924 924 924 924 924 923 923 923 923 924 924 924 925 925 925 925 925 925 925 925
877 877 879 879 879 879 879 879 879 879 879 879 880 880 880 880 879 879 879 879 880 882 882 884 885 886 886 885 885 885 885 885 886 888 888 887 887 887 886 884 883 883 884 883 883 883 883 883 884 885 885 884 883 882 880 879 878 879 879 880 881 881 882 883 883 884 884 883 883 884 884 884 883 884 883 883 883 883 882 881 880 879 879 880 881 883 885 888 889 888 886 886 883 878 876 878 880 880 878 879 881 882 883 883 882 882 881 882 883 884 882 881 882 882 882 883 884 883 882 882 882 881 881 880 881 881 881 882 883 886 889 892 894 893 893 892 892 892 892 892 892 893 894 896 898 899 900 899 899 899 900 902 903 904 904 905 906 906 907 907 908 909 909 908 908 907 907 907 908 909 910 910 910 910 910 910 909 909 908 908 908 909 909 909 910 910 910 911 911 911 911 911 911 912 913 913 914 914 914 915 915 916 918 919 921 921 921 922 922 922 922 921 921 921 920 918 918 916 916 916 917 917 917 917 918 918 919 919 919 919 919 918 918 916 916 915 915 916 916 916 916 916 916 917 918 920 921 922 922 923 922 922 923 924 925 926 927 925 924 922 921 921 921 921 921 922 924 924 926 927 926 926 926 926 925 924 923 922 923 923 923 924 925 926 927 929 931 934 935 933 934 938 940 936 933 932 930 928 928 927 929 929 928 928 927 926 926 925 925 925 925 925 925 925 925 925 924 924 923 922 922 921 921 921 921 921 921 921 921 920 919 919 920 920 920 920 920 920 920 920 920 920 921 921 922 922 922 922 922 921 921 920 920 918 918 919 920 921 922 923 925 927 929 928 926 925 923 922 924 924 925 926 926 927 928 928 929 928 928 928 927 926 924 923 921 922 923 924 925 926 926 928 929 930 931 932 932 932 932 932 933 933 933 933 933 933 932 932 932 933 934 935 935 935 934 933 933 933 933 933 933 933 934 935 934 935 935 935 935 935 935 936 936 936 936 936 936 936 936 935 935 935 935 936 938 938 939 939 939 940 940 940 940 940 941 942 942 943 943 943 943 943 943 942 940 939 938 937 937 937 937 938 938 934 932 932 932 932 932 932 932 932 933 933 933 933 933 933 933 932 932 931 931 929 928 929 930 931 932 932 932 932 932 931 929 928 925 924 922 921 924 924 925 928 929 931 932 934 935 938 939 941 943 945 946 947 947 947 948 948 950 951 949 948 946 944 943 943 942 942 942 942 942 942 941 940 939 938 938 939 940 940 940 938 937 936 935 933 933 933 932 932 932 931 931 931 930 930 930 929 929 928 928 928 929 929 930 929 930 930 930 930 930 928 926 925 925 925 925 925 925 925 924 924 924 924 924 924 924 924 923 923 923 923 924 924 924 924 924 924 925 924 925 925 924
877 877 878 879 879 879 879 878 878 878 878 878 879 879 878 878 878 878 879 880 882 883 883 884 885 886 887 886 885 885 885 885 887 888 888 887 887 886 885 884 883 883 884 883 883 883 883 884 885 885 883 883 883 883 880 879 878 879 880 881 882 883 883 884 883 884 884 884 884 883 884 884 881 882 883 883 883 883 883 882 881 880 880 882 884 886 888 888 887 886 885 884 882 878 876 877 877 879 878 879 881 882 883 884 883 881 880 881 883 885 884 883 882 882 883 884 883 883 882 882 881 881 881 881 881 882 882 883 884 887 890 893 894 894 894 893 893 893 893 893 892 894 895 897 898 899 900 900 900 900 901 902 903 904 904 905 905 906 907 907 908 908 909 908 908 907 907 907 908 909 910 910 910 909 909 909 909 908 908 908 908 908 908 908 909 909 910 911 911 911 911 911 911 912 913 914 914 914 915 915 915 916 918 918 920 920 921 921 921 921 921 920 920 920 919 917 917 915 915 916 916 916 917 917 917 918 918 918 918 918 918 917 917 916 916 915 915 916 916 916 916 916 916 916 917 919 920 921 922 922 922 922 923 924 925 926 926 925 924 922 921 921 921 920 920 922 923 924 925 926 926 926 926 926 925 924 922 922 922 922 923 923 924 926 927 928 930 934 938 938 939 937 935 932 930 929 928 927 927 928 929 928 927 927 926 925 925 925 925 925 924 924 924 925 924 924 924 923 923 922 921 921 921 921 921 921 921 921 921 920 920 920 920 920 920 921 921 921 921 920 920 920 921 921 921 922 922 922 921 921 921 920 919 918 917 919 920 921 923 925 928 928 926 924 922 922 922 922 922 923 924 925 925 926 927 928 928 927 927 927 925 924 923 922 921 922 923 924 925 926 926 927 928 929 930 931 932 932 932 932 932 932 932 932 931 931 930 930 930 932 933 934 935 933 932 932 932 932 932 932 933 933 933 934 934 934 934 934 934 934 934 935 935 935 935 935 935 935 934 934 934 934 935 935 937 938 938 938 939 939 939 939 939 939 940 940 941 942 942 942 942 942 942 941 940 938 937 938 939 939 939 938 938 935 933 933 933 933 933 933 933 933 933 933 933 933 933 933 933 933 933 932 931 930 929 929 930 931 931 932 932 931 930 930 929 928 925 924 923 922 922 924 925 928 930 932 933 934 935 938 940 942 944 946 946 947 947 948 949 948 949 951 949 948 946 944 943 943 942 942 942 942 942 942 941 940 939 938 938 939 939 940 940 938 937 935 934 933 932 932 931 931 931 931 931 931 930 930 930 929 929 928 928 928 929 929 929 929 928 927 926 926 925 925 924 924 924 925 925 925 925 925 924 924 924 924 924 924 924 924 923 923 923 923 924 924 924 924 924 924 924 924 924 924 924
877 877 878 879 879 879 878 878 878 878 877 878 878 878 878 878 879 880 881 882 884 884 884 884 885 886 887 887 886 886 886 886 887 888 888 887 887 886 885 885 885 885 885 884 883 883 884 885 883 883 883 884 884 882 880 879 879 880 882 883 883 884 884 882 882 882 885 885 883 882 882 881 881 881 883 883 883 883 882 882 882 882 883 884 887 888 888 887 886 885 884 882 882 878 877 877 877 878 878 879 881 882 883 884 883 882 881 883 883 885 885 883 882 883 884 884 883 882 882 882 881 881 881 881 881 882 883 883 885 888 891 893 896 896 895 895 895 895 895 894 894 895 896 897 899 900 900 901 901 901 902 902 903 904 904 905 905 906 906 907 908 908 908 908 908 907 907 907 908 909 910 910 910 909 909 909 908 908 908 907 908 908 908 908 909 909 910 911 911 911 911 911 911 912 913 914 914 915 915 915 915 916 917 918 920 920 920 920 920 920 920 920 919 919 918 917 916 915 915 916 916 916 917 917 917 918 918 918 918 917 917 917 916 916 915 915 915 916 916 916 916 916 916 916 917 918 919 921 921 922 922 922 923 923 925 926 926 925 924 922 921 920 920 920 920 921 922 924 924 925 925 925 925 925 924 923 922 921 921 922 922 922 923 925 926 928 931 935 938 939 934 932 930 928 927 927 927 927 926 927 929 928 927 926 926 925 925 925 924 924 924 924 924 924 923 923 923 922 922 921 921 921 921 921 921 921 921 921 921 920 920 920 921 921 921 921 921 921 921 921 921 921 921 921 922 922 922 922 921 921 921 920 918 918 918 920 922 923 925 927 928 925 922 921 920 921 922 922 922 923 923 924 924 925 925 926 926 926 925 925 924 923 923 921 921 922 923 924 925 926 926 927 928 928 929 930 931 931 931 931 931 931 931 931 930 930 929 929 929 930 931 932 933 932 931 931 931 931 932 932 933 933 933 933 933 933 933 933 933 933 933 934 934 934 934 934 933 933 933 933 932 932 933 935 936 936 937 937 937 937 937 937 937 937 938 938 939 940 940 940 940 941 940 939 938 937 936 938 939 939 939 937 936 935 934 934 934 933 934 934 934 934 934 934 934 934 934 934 934 934 933 933 931 930 929 929 929 929 929 929 930 930 929 928 928 927 925 924 923 922 921 923 926 929 931 933 933 934 936 938 940 942 945 946 947 947 948 949 949 949 949 951 950 948 946 944 944 943 942 942 942 942 942 942 941 940 939 938 938 939 939 940 940 938 936 934 933 933 931 931 930 930 930 930 930 930 930 930 930 930 929 928 928 928 928 928 929 928 927 927 926 926 925 925 924 924 924 925 925 925 925 924 924 923 923 924 924 924 924 924 923 923 923 923 924 924 924 924 924 924 924 924 924 924 924
876 876 877 879 879 878 877 877 877 876 876 877 878 879 879 880 881 882 882 884 885 885 885 885 886 886 886 887 887 887 887 887 888 888 888 887 886 886 886 886 886 886 886 884 884 885 884 883 883 883 884 884 884 883 882 880 880 882 883 884 884 885 886 884 883 884 885 885 883 882 883 882 882 882 883 883 883 882 882 882 883 884 886 887 887 885 887 886 885 884 883 882 880 878 877 877 878 879 880 880 881 882 883 883 884 883 883 884 884 884 884 882 882 884 884 883 883 882 882 881 881 881 881 882 882 883 884 884 886 889 892 894 897 897 896 896 896 896 896 895 895 895 897 898 900 901 901 901 902 902 902 903 903 904 904 905 905 906 906 906 907 908 908 908 907 907 906 908 908 909 910 910 910 909 909 909 908 908 907 907 907 908 908 908 909 909 910 911 911 911 911 911 911 912 913 914 915 915 915 915 915 916 917 918 919 919 919 919 920 920 919 919 919 918 917 917 916 915 915 915 916 916 916 917 917 918 918 918 918 917 917 917 916 916 915 915 916 916 917 917 917 916 916 916 917 918 919 920 921 921 921 922 922 923 925 925 926 925 923 922 921 920 920 920 919 920 921 922 923 924 924 924 924 924 923 922 922 921 921 921 921 921 923 924 927 930 934 937 936 932 927 925 927 926 926 926 926 926 926 927 929 927 927 926 925 925 924 924 924 924 924 923 923 923 922 922 922 922 921 921 921 921 921 921 921 921 921 921 921 920 920 921 921 921 921 921 921 921 921 921 921 921 921 921 922 922 922 922 921 921 920 920 919 918 918 921 923 925 927 928 926 922 920 920 920 921 922 922 922 923 923 923 923 924 924 925 924 925 924 924 924 923 923 922 921 922 923 924 925 926 926 926 927 927 929 929 930 930 930 930 929 929 929 929 929 928 928 927 927 928 929 930 931 930 930 930 930 931 932 932 933 933 933 932 932 932 932 932 932 932 932 933 933 933 933 932 932 931 932 932 931 931 932 933 934 935 936 936 936 936 936 936 936 936 936 937 938 939 939 939 939 938 938 937 936 936 935 937 939 939 938 937 935 935 934 935 934 934 934 934 934 934 935 934 934 935 934 934 934 934 934 933 932 931 929 929 928 928 927 927 927 928 928 928 927 927 926 925 924 922 922 922 926 929 932 933 934 935 936 938 940 942 945 946 947 948 949 949 949 950 950 952 953 950 947 944 943 943 942 942 942 941 941 941 940 940 939 939 938 939 939 939 939 937 936 935 933 932 931 930 930 929 928 928 928 928 928 929 929 929 929 928 928 928 928 928 928 928 927 927 926 926 925 925 924 924 924 925 925 925 924 924 923 923 923 923 923 924 924 924 924 924 923 924 924 924 924 924 924 924 925 925 924 924 923
875 875 876 879 878 877 876 876 876 874 876 878 880 881 882 883 884 885 885 886 886 887 887 887 887 887 887 887 887 888 888 888 888 887 887 887 887 887 888 888 887 887 886 886 885 885 886 885 884 884 884 884 884 884 884 883 883 883 884 885 885 885 887 886 886 886 886 885 883 882 883 883 883 883 883 883 882 882 883 883 884 886 888 888 886 882 886 885 885 885 883 882 879 878 877 878 880 881 882 881 882 882 883 883 884 884 883 883 883 883 882 882 882 883 883 882 882 882 881 881 881 882 882 882 883 883 884 885 887 890 892 895 898 898 898 898 897 897 897 896 896 896 898 899 901 901 902 902 903 903 903 904 904 904 904 905 905 905 906 906 907 907 908 907 907 906 906 907 908 909 909 909 910 909 909 909 908 908 907 906 907 908 908 908 909 909 910 911 911 911 911 911 911 912 913 914 915 915 915 915 915 916 917 918 919 919 919 919 920 919 919 919 918 918 917 916 916 914 915 915 916 916 916 917 917 918 918 918 918 917 917 917 916 916 915 915 916 916 917 917 917 916 916 916 917 918 919 920 920 921 921 921 922 923 924 925 925 924 923 922 921 920 920 919 919 919 920 921 922 922 922 923 923 924 923 922 921 920 921 921 921 921 924 926 929 933 935 932 928 926 924 924 924 925 925 925 925 925 926 928 928 927 926 926 925 925 924 924 924 923 923 922 922 923 922 922 922 922 921 921 921 921 921 921 921 921 921 921 921 920 920 921 921 921 921 921 921 921 921 921 921 921 921 921 922 922 922 922 921 921 920 920 920 919 919 921 923 926 928 927 925 922 920 920 920 921 922 922 922 922 921 921 922 922 923 923 923 923 924 924 923 923 922 922 921 922 923 923 924 925 926 926 927 927 928 928 929 929 928 928 928 928 928 928 928 927 927 926 926 927 927 929 929 929 929 929 929 930 931 932 933 932 932 931 931 931 931 931 931 931 931 932 932 932 932 931 930 930 930 930 930 930 932 932 933 935 935 934 934 934 934 934 934 934 935 936 937 938 938 937 937 936 936 936 936 936 935 937 939 938 937 936 935 935 935 935 935 935 935 935 935 936 936 936 935 935 934 935 935 935 935 933 933 932 930 930 929 928 928 927 927 927 927 927 927 927 926 925 924 923 923 922 925 929 932 933 935 936 936 938 940 942 945 946 948 949 949 950 950 950 950 951 952 949 947 944 943 943 942 941 941 941 940 940 939 939 938 938 938 938 938 938 938 936 935 934 932 932 931 930 929 928 928 927 926 927 927 928 929 928 928 928 928 928 928 928 927 927 927 927 926 926 925 925 924 924 924 925 925 925 924 924 923 922 923 923 923 924 924 924 924 924 924 924 924 924 924 924 924 924 925 925 924 924 923
875 875 876 876 877 878 878 878 878 877 878 881 883 884 884 885 886 887 887 887 888 888 888 888 888 888 889 888 888 888 888 887 887 887 887 887 888 889 889 888 887 887 887 887 887 887 888 886 885 885 884 884 884 884 885 884 885 884 885 886 886 887 887 888 887 887 886 885 883 883 883 883 883 883 883 882 882 883 885 886 886 888 889 888 885 884 885 885 886 885 883 882 881 879 879 880 881 883 883 883 884 883 883 884 884 885 881 881 881 882 882 882 883 882 882 882 881 881 881 881 881 882 882 883 883 884 885 887 888 890 893 896 899 899 899 899 899 897 897 898 897 897 899 900 901 902 902 903 904 904 904 905 905 905 905 905 905 905 905 906 906 907 907 907 906 906 906 906 907 908 909 909 909 909 909 909 908 908 907 906 907 907 908 908 909 909 910 910 911 911 911 911 911 912 913 914 914 915 915 916 916 917 917 918 919 919 919 919 919 919 918 918 918 918 918 916 915 914 914 915 915 915 916 917 917 918 918 918 918 917 917 917 916 916 915 915 916 916 917 917 917 916 916 916 917 918 919 920 920 920 921 921 922 923 924 924 925 924 923 921 920 920 919 919 919 919 919 920 921 921 921 922 923 923 923 922 921 920 920 920 920 921 925 929 932 931 927 925 923 923 924 923 923 924 924 924 925 925 928 929 928 927 926 925 925 925 924 924 923 923 922 922 922 922 922 922 922 922 921 921 921 921 921 921 921 921 921 921 921 921 921 921 921 921 921 921 920 920 921 921 921 921 921 921 922 922 922 922 921 921 921 921 920 920 919 922 924 927 926 925 925 922 920 920 920 921 921 921 921 920 920 920 920 921 921 922 922 923 923 923 923 922 921 921 921 921 922 922 923 924 925 926 926 927 927 928 928 928 928 928 928 928 928 928 927 926 926 925 925 926 926 927 928 928 928 928 928 930 930 932 932 932 931 931 930 931 930 929 929 930 930 930 931 931 930 929 929 929 929 929 929 930 931 931 933 933 933 933 933 933 933 933 934 934 935 935 936 936 937 936 936 935 936 937 937 937 938 939 938 938 937 936 935 935 936 935 935 936 936 936 937 937 937 937 936 935 935 935 936 936 936 934 934 932 931 931 930 929 929 929 929 928 928 927 928 928 927 925 924 923 922 922 925 928 931 933 935 937 937 939 941 942 945 946 948 949 950 951 951 950 949 951 949 948 946 943 943 942 941 940 940 940 939 939 939 938 938 938 937 937 937 937 937 936 934 933 932 931 930 930 928 927 927 927 926 926 927 928 928 928 928 928 928 928 928 928 927 927 927 927 926 926 925 925 925 924 924 925 925 925 924 924 923 922 922 923 923 924 924 924 924 924 924 924 924 924 924 924 925 925 925 925 924 923 923
875 876 877 878 878 879 879 880 881 881 882 884 886 887 887 888 889 889 889 889 890 890 889 889 889 890 889 889 888 888 888 887 888 889 889 888 889 889 889 888 887 888 889 888 887 888 888 887 886 885 884 884 884 884 884 885 885 885 886 887 887 888 888 888 887 887 886 885 883 883 883 884 884 883 882 882 882 885 886 888 889 889 888 887 885 885 885 886 886 886 884 884 882 882 882 883 883 885 885 884 884 883 883 884 884 886 881 879 881 882 882 883 883 882 882 881 881 881 881 881 881 882 882 883 884 886 887 888 889 892 895 898 900 900 900 900 900 898 896 898 898 898 899 900 901 902 902 903 904 904 905 905 905 905 905 905 905 905 905 906 906 907 907 906 906 905 905 906 907 907 908 909 909 909 909 909 908 906 905 905 905 906 907 908 908 909 910 910 910 911 911 911 911 912 913 913 914 914 915 915 916 917 917 918 919 919 919 918 918 918 918 918 918 919 918 916 916 914 914 914 915 915 916 916 917 918 918 918 918 917 917 917 916 916 915 915 916 916 917 917 917 916 916 916 917 918 919 920 920 920 921 921 921 923 923 924 925 923 922 921 920 920 919 919 919 919 919 919 920 921 921 922 923 923 922 922 921 920 920 920 920 920 926 932 931 926 920 921 923 923 924 923 923 923 923 924 925 927 929 928 927 927 926 925 925 925 924 924 923 923 922 921 921 921 921 921 921 921 921 921 921 921 921 921 921 921 922 922 922 921 921 921 922 922 921 921 920 920 920 920 920 920 921 921 921 922 922 921 921 920 920 920 920 920 920 922 923 924 924 923 923 921 920 919 920 920 920 920 920 919 919 918 919 920 920 920 921 921 922 922 922 921 921 920 920 920 921 922 923 923 924 926 926 927 927 928 927 928 928 928 928 928 928 928 927 926 925 925 925 925 925 927 927 928 928 928 928 929 930 931 932 932 931 931 930 930 929 929 929 929 929 930 930 930 930 929 929 928 929 929 929 929 930 931 932 932 932 932 932 933 933 933 933 933 934 934 934 935 936 935 935 935 935 937 939 939 938 937 938 937 936 936 936 936 936 937 937 937 937 937 938 938 938 937 937 935 935 935 936 936 936 935 935 933 933 932 931 930 930 930 930 929 928 928 928 928 928 926 923 922 922 923 925 928 931 933 935 937 938 939 941 943 945 946 948 949 950 951 950 949 948 949 948 946 945 943 942 941 940 939 940 939 939 939 938 938 938 937 937 937 937 937 936 935 933 932 931 930 930 929 928 927 927 926 926 926 927 927 927 928 928 928 928 927 927 927 927 927 926 926 926 926 925 925 925 924 925 925 925 925 924 924 923 922 923 923 923 924 924 924 924 924 924 924 924 924 924 924 925 925 925 925 924 924 923
877 878 879 879 880 881 881 882 884 885 886 887 889 889 890 890 890 891 891 891 892 892 891 891 890 890 889 889 888 888 888 887 889 892 891 888 889 889 889 889 887 889 891 889 888 888 888 887 885 884 884 884 884 885 886 887 887 887 887 888 888 888 888 888 887 887 886 885 882 882 882 883 883 883 882 882 883 885 887 888 888 888 888 887 886 887 887 887 886 886 886 886 885 883 884 885 885 885 884 884 883 883 884 885 885 886 881 880 881 882 883 883 882 882 882 881 881 881 881 880 881 882 883 884 885 887 888 889 891 894 896 899 900 901 901 901 901 899 896 896 897 897 899 900 901 902 902 904 904 905 905 905 905 905 905 905 905 905 905 905 905 906 906 905 905 904 904 905 906 907 908 908 908 908 909 909 906 905 904 903 903 905 906 908 908 909 909 910 910 910 911 911 911 911 912 912 913 913 915 915 916 917 917 918 919 919 919 918 918 918 918 918 919 919 917 917 916 914 914 915 915 915 916 916 917 918 918 918 918 917 917 917 916 916 915 915 916 916 917 917 917 916 916 916 917 918 919 920 920 920 921 921 921 922 923 924 924 923 922 921 920 919 919 919 918 918 919 919 919 920 921 922 923 923 922 921 920 920 919 919 919 919 924 930 927 922 920 921 922 922 923 923 923 923 923 925 926 928 928 926 925 925 925 925 925 925 924 924 923 923 922 921 921 921 921 921 921 921 921 921 921 921 921 921 921 921 922 923 922 922 922 922 922 922 922 921 920 920 920 920 920 920 920 920 921 922 922 921 920 920 919 919 920 920 920 921 921 922 923 921 921 920 919 919 920 919 919 919 920 919 918 918 918 918 918 918 919 919 920 922 921 921 921 920 920 920 921 921 922 923 924 925 926 926 927 927 927 928 928 928 928 928 927 927 926 925 925 925 925 925 925 926 926 927 927 927 928 928 930 930 932 931 931 930 930 929 929 928 928 928 928 929 929 929 929 928 928 928 928 928 928 929 930 930 931 931 931 931 932 932 932 932 932 933 933 933 934 934 935 934 934 933 934 937 938 938 936 935 935 936 936 936 937 937 937 937 938 938 938 938 938 938 939 937 937 935 935 935 936 936 936 935 935 933 933 933 932 932 931 931 930 929 928 928 928 928 928 926 923 922 922 922 925 928 931 932 934 936 938 940 942 944 945 946 947 949 950 951 949 948 948 949 947 946 944 943 942 941 940 939 939 939 938 938 938 938 938 937 937 937 936 936 935 934 933 931 930 930 929 928 928 927 927 926 926 926 927 927 927 927 927 927 927 927 927 927 926 926 926 926 926 926 926 925 925 925 925 925 925 925 924 924 923 922 923 923 923 924 924 924 924 924 924 924 924 924 924 924 925 925 925 925 924 924 923
880 880 881 881 882 883 884 884 885 888 889 890 892 891 891 891 891 892 892 893 893 893 892 892 890 890 890 889 888 888 888 889 890 892 891 890 889 889 889 889 890 891 891 890 890 889 888 887 885 884 884 885 885 886 888 888 889 889 888 888 888 888 888 888 887 887 886 885 883 883 883 882 882 883 883 883 882 885 887 888 887 887 887 887 888 888 888 887 887 887 887 887 887 886 886 886 885 884 884 883 883 884 885 885 886 886 882 882 882 883 883 883 882 883 883 881 881 881 881 880 881 882 883 885 886 888 889 891 892 895 897 899 901 901 902 902 902 900 897 895 894 896 898 899 901 902 903 904 905 905 906 906 906 906 906 906 905 905 905 905 905 905 905 904 904 903 903 904 905 906 907 907 908 908 908 908 906 905 903 902 903 905 906 908 908 909 909 910 910 910 911 911 911 911 912 912 912 913 914 916 916 917 918 918 919 919 919 918 918 918 918 918 919 919 918 917 916 915 915 915 915 915 916 916 917 918 918 918 918 917 917 917 917 916 916 916 916 917 917 917 917 916 916 916 917 918 919 920 920 920 921 921 921 922 923 923 924 923 921 920 919 919 918 918 918 918 918 918 919 919 920 921 922 923 922 921 920 919 919 918 918 918 920 923 925 922 919 920 921 921 922 922 923 923 923 925 927 929 926 924 924 924 924 924 924 924 924 924 923 922 922 921 920 920 920 920 920 920 921 921 921 923 922 922 921 922 922 923 923 923 923 923 923 923 922 921 921 920 920 920 919 919 920 920 921 922 922 921 920 920 919 919 920 920 920 920 920 920 921 920 919 919 919 919 919 919 919 919 919 919 918 918 918 917 916 916 917 919 919 921 921 920 920 919 919 919 920 920 921 923 924 925 926 926 926 926 926 927 927 927 927 927 926 926 925 925 925 925 925 925 925 925 925 926 926 927 927 928 929 930 931 930 930 929 929 928 928 928 927 927 927 928 928 928 928 928 927 927 927 928 928 928 928 929 930 930 931 931 932 932 932 932 932 932 932 932 933 933 934 933 933 933 934 936 935 935 935 935 935 936 936 936 936 937 937 937 938 938 938 938 937 938 938 937 936 935 935 935 935 936 936 935 934 933 933 933 933 932 932 931 930 929 929 928 927 927 926 924 922 922 922 923 925 928 931 932 934 936 938 940 942 944 945 946 947 948 949 950 949 948 947 949 947 945 943 942 942 940 940 939 938 938 938 937 937 937 937 937 936 936 935 935 934 933 932 930 929 929 929 929 928 928 927 926 926 926 926 926 927 927 927 927 927 927 927 926 926 926 926 927 927 926 926 926 925 925 925 925 924 924 924 923 923 922 922 923 923 923 924 924 924 924 924 924 924 924 924 925 925 926 926 925 925 924 924
883 884 885 884 885 885 886 886 887 890 891 893 893 893 893 893 892 893 893 894 894 893 892 892 891 890 890 890 890 889 890 890 891 892 891 890 890 890 890 890 891 892 892 891 891 890 889 887 885 884 885 887 887 889 889 889 889 889 888 888 888 888 888 888 887 887 886 885 884 883 884 883 882 883 883 882 882 884 886 887 887 887 887 888 888 888 888 887 887 887 887 887 887 887 886 885 885 884 884 883 884 885 885 885 886 886 883 884 884 884 883 883 884 884 885 881 881 881 881 881 882 883 884 886 887 889 891 892 894 895 897 899 901 902 902 902 900 897 897 898 898 899 901 902 902 902 903 904 905 906 906 906 906 905 905 905 905 905 905 905 905 905 904 904 903 902 902 903 904 905 906 906 907 908 908 907 906 905 903 902 904 905 906 907 908 908 909 910 910 910 911 911 911 911 911 912 912 913 914 916 917 917 918 918 919 919 919 918 918 918 918 919 919 919 918 917 916 915 915 915 915 915 916 916 917 918 919 918 918 918 917 917 917 917 917 917 917 917 918 918 917 916 916 916 917 918 919 920 920 920 921 921 921 922 923 923 923 922 920 920 919 918 918 918 918 918 918 917 918 919 919 921 922 923 922 920 919 918 918 918 918 918 918 919 920 921 918 919 920 921 922 922 923 923 923 926 927 928 924 924 924 924 924 924 924 924 924 924 923 922 921 920 920 920 920 920 921 921 921 921 921 924 923 923 922 923 924 924 922 923 923 923 923 923 922 921 921 920 920 919 919 919 920 920 921 922 922 921 920 920 919 919 920 920 920 920 920 920 920 920 919 919 918 918 918 918 918 918 918 918 918 917 917 916 915 915 917 918 919 919 920 919 919 918 918 918 919 919 919 921 923 925 925 925 925 925 925 926 926 927 926 926 926 925 925 925 925 925 925 925 925 925 925 926 926 927 927 928 928 929 930 929 929 928 928 928 927 927 926 926 927 927 927 927 927 927 926 926 926 927 927 927 927 928 929 929 929 930 930 930 931 932 932 931 932 932 932 933 932 933 933 932 933 934 933 933 934 934 935 936 936 936 936 936 937 937 937 937 937 937 937 937 937 936 936 935 935 935 935 935 935 934 934 934 934 934 934 933 932 931 931 929 929 927 925 925 924 922 922 922 922 923 925 928 931 932 934 936 938 940 941 944 945 946 947 948 948 949 948 947 948 948 947 945 943 942 941 940 939 939 938 937 937 937 937 936 937 937 937 937 935 934 932 932 932 931 931 929 929 929 928 928 928 927 927 926 926 926 926 926 926 927 927 927 927 926 926 926 926 927 927 927 926 926 925 924 924 925 924 924 923 923 922 922 922 922 922 923 924 924 924 924 924 924 924 924 924 924 925 926 926 925 925 924 924
886 887 887 887 888 888 889 889 890 892 893 894 895 894 894 894 894 894 894 895 895 892 892 892 891 890 890 891 891 891 891 892 892 893 891 891 890 891 891 891 892 892 892 892 891 891 890 888 886 887 888 890 890 891 891 890 889 889 888 888 888 888 888 888 887 887 887 886 885 885 885 883 882 882 882 882 882 884 885 886 887 887 887 888 888 888 888 887 887 887 887 887 886 886 885 884 884 883 883 884 885 886 886 886 886 886 885 885 884 884 883 884 885 886 885 881 881 881 882 884 885 886 886 887 889 890 892 894 895 896 897 899 902 901 900 897 898 900 899 896 900 901 902 902 902 902 904 904 905 906 906 905 905 905 905 905 905 905 905 905 905 905 904 904 903 902 901 902 903 904 905 906 906 907 908 908 906 905 903 902 904 905 905 907 908 908 909 910 910 910 911 911 911 911 911 912 912 913 914 916 917 918 918 918 919 919 919 918 918 918 918 919 919 919 919 917 916 915 915 915 915 915 916 916 917 918 919 918 918 918 917 917 918 918 918 918 918 918 919 919 918 917 917 916 917 918 919 920 920 920 921 921 921 922 922 923 922 922 921 919 918 918 918 918 918 918 918 917 917 918 919 920 922 922 921 920 919 917 917 918 918 918 918 918 917 918 917 919 920 921 922 922 922 923 923 924 926 927 924 924 924 924 924 924 924 924 924 923 923 922 921 920 920 920 920 920 922 923 922 922 922 924 925 925 925 924 925 925 921 922 922 922 923 923 922 921 921 920 920 919 919 919 920 920 921 922 922 921 920 920 919 919 920 920 920 920 920 920 919 919 919 919 918 918 918 917 917 917 917 917 916 915 915 915 916 916 917 918 918 918 918 918 918 917 917 917 917 918 919 920 923 924 923 923 923 923 924 925 925 926 925 925 925 924 924 924 924 924 924 925 925 925 925 926 926 926 926 927 927 928 929 928 928 928 928 928 927 927 926 926 927 926 927 927 927 926 926 926 925 927 927 927 927 928 928 928 928 928 928 928 929 930 930 931 931 931 931 931 932 932 932 932 933 933 933 933 933 934 935 936 937 937 936 936 936 937 937 937 937 937 937 936 936 936 936 936 936 935 935 934 934 934 934 935 935 935 934 933 932 931 931 929 928 926 925 924 922 922 922 922 922 924 926 928 931 932 934 936 937 939 941 943 945 946 947 947 948 949 948 947 948 948 947 945 944 941 941 940 939 938 938 937 937 936 936 936 937 937 937 937 937 936 935 934 934 933 933 932 930 929 929 928 928 929 929 928 927 926 926 926 926 927 927 927 927 926 926 926 926 927 927 927 926 925 925 924 924 924 924 923 923 922 922 922 922 922 922 923 923 923 924 924 924 924 924 924 924 924 925 925 926 925 925 924 924
889 889 890 890 891 891 891 890 892 893 894 895 896 896 895 895 895 895 895 895 895 893 892 891 891 890 891 892 893 893 892 893 892 892 891 891 890 891 891 892 892 892 893 893 892 892 891 889 889 891 891 891 891 891 891 890 889 889 888 888 888 888 888 887 887 887 887 887 886 886 886 884 882 882 882 882 882 884 884 886 887 887 887 888 888 888 888 887 887 886 886 886 885 885 884 882 882 883 884 885 886 887 887 887 887 886 886 885 885 884 883 884 885 886 886 881 881 881 886 887 887 887 888 889 890 892 893 896 896 897 898 899 900 898 898 897 901 904 901 897 899 902 902 902 902 902 904 904 905 906 906 904 905 905 905 905 905 905 905 905 905 905 904 904 903 902 901 901 901 902 903 904 905 906 907 907 906 905 903 902 904 905 905 907 908 908 909 910 910 910 911 911 911 911 911 911 912 913 914 916 917 918 918 918 919 919 919 918 918 919 919 919 919 920 918 917 917 916 916 915 915 915 916 916 918 918 919 918 918 918 917 917 918 918 918 919 919 919 920 920 919 918 917 917 917 918 919 920 920 920 921 921 921 921 922 922 922 921 920 919 918 918 918 918 918 918 918 917 917 918 919 920 921 922 920 920 919 917 917 918 918 918 918 918 917 917 917 919 920 920 922 922 922 923 923 923 923 924 924 923 923 923 924 924 924 924 924 923 922 922 921 920 920 920 920 920 921 924 924 924 924 925 926 926 926 925 925 924 921 921 922 922 923 923 922 921 921 920 920 919 919 919 920 920 921 922 921 921 920 920 919 919 920 920 920 919 919 919 919 919 918 918 918 917 917 917 916 916 916 915 914 914 915 915 916 917 918 918 918 918 918 917 917 916 916 916 916 917 917 920 923 924 923 922 922 922 924 924 924 925 924 925 924 924 924 923 924 924 924 924 925 925 925 926 926 926 926 927 927 928 929 928 928 928 928 928 927 927 926 926 926 926 926 926 926 925 925 925 925 926 926 926 926 927 927 927 927 927 927 927 927 928 929 930 930 930 930 930 931 931 931 931 932 932 932 932 932 933 934 936 937 937 937 936 936 937 937 937 937 937 936 936 936 936 936 936 936 936 935 935 935 935 935 936 936 935 935 934 932 932 931 929 928 926 924 922 922 922 922 922 923 926 927 930 931 932 934 936 937 939 940 942 944 946 946 947 948 948 948 947 947 947 946 944 943 941 940 940 938 938 938 937 936 936 936 936 937 937 937 937 938 937 937 936 936 936 935 935 933 931 930 930 930 931 931 930 929 928 927 926 926 927 927 927 927 926 926 926 926 927 927 927 926 925 924 924 923 923 923 923 923 922 922 922 922 922 922 922 922 923 923 923 924 924 924 923 923 924 925 925 926 925 925 924 924
891 892 893 893 893 893 893 892 893 894 895 897 897 896 897 895 895 895 895 896 895 894 891 891 891 892 893 893 895 895 894 894 893 892 891 891 891 891 892 892 891 891 894 894 893 893 892 892 893 893 893 892 892 891 891 891 890 889 889 888 887 887 887 887 887 887 887 887 887 887 886 884 882 882 882 882 882 882 884 886 887 887 888 888 888 888 887 887 887 886 885 885 884 884 883 881 882 883 885 885 887 888 887 887 887 886 886 886 885 885 883 884 885 886 886 882 881 884 888 890 890 890 891 891 893 893 895 897 897 898 898 898 898 897 898 899 906 906 901 897 898 900 902 902 902 902 903 904 905 905 904 904 904 904 904 904 904 904 905 905 905 905 904 904 902 901 900 901 901 901 902 903 904 905 906 906 905 904 903 902 904 905 906 907 908 908 909 910 910 911 911 912 912 912 911 911 912 913 914 916 917 918 918 918 919 919 919 919 919 919 919 919 920 920 919 918 917 917 917 916 916 915 916 916 917 918 918 918 918 917 917 917 918 918 918 919 919 920 921 920 920 919 918 918 918 919 919 920 920 920 921 921 921 921 922 922 922 921 919 919 918 918 918 918 918 918 918 917 917 918 919 920 921 922 921 920 919 918 918 918 918 918 918 918 918 917 918 919 919 920 921 921 922 922 922 922 922 922 923 922 923 923 923 923 923 923 923 923 922 922 921 920 920 920 920 920 922 924 926 926 925 924 923 923 921 923 923 924 921 921 922 922 923 923 922 921 921 920 920 919 919 919 920 920 921 921 921 920 920 919 919 919 920 920 920 919 919 919 918 918 918 918 917 916 916 917 915 915 915 915 914 914 915 916 916 918 918 918 917 918 917 917 916 916 915 916 916 917 917 919 922 924 923 921 921 922 924 924 924 924 924 924 923 923 923 923 923 923 923 924 924 925 925 925 926 926 926 926 927 927 927 928 928 928 928 928 927 927 927 926 926 926 925 925 925 924 924 924 924 924 925 925 925 925 925 925 925 925 925 925 925 927 927 929 929 929 930 930 930 931 931 931 931 931 931 931 931 932 933 935 936 937 937 937 937 937 937 937 937 937 936 936 936 937 937 937 937 936 936 935 935 936 936 937 937 936 935 934 933 932 930 929 928 925 923 922 922 922 922 923 925 928 929 931 931 932 933 936 937 939 940 942 943 945 946 947 947 948 948 947 946 946 945 944 941 940 939 939 938 938 937 937 936 936 936 936 937 937 937 937 937 937 937 936 937 937 937 937 935 934 933 932 933 933 933 932 932 930 930 928 927 927 927 927 927 926 926 926 926 927 927 928 926 925 924 923 923 923 923 923 923 922 922 921 921 921 922 922 922 922 923 923 923 923 923 923 923 924 925 925 926 926 925 924 924
894 894 895 896 895 895 895 894 895 896 897 898 898 897 897 896 896 896 896 896 895 893 891 892 893 894 894 895 895 896 895 895 894 894 893 892 892 892 892 889 888 892 894 894 894 895 894 895 896 895 893 893 893 892 892 891 891 891 890 889 888 887 886 886 887 888 888 888 888 888 887 886 883 882 882 882 882 882 885 886 887 887 887 887 887 888 887 887 886 886 885 885 883 883 881 881 882 884 885 886 887 888 887 887 887 886 886 886 885 885 883 884 885 887 887 883 883 887 890 892 892 893 893 894 895 895 897 897 898 898 898 897 897 898 899 900 906 906 902 897 897 898 902 903 902 902 902 904 904 904 903 903 903 903 903 903 903 904 904 905 905 905 904 903 902 901 900 900 901 901 902 903 903 904 905 905 904 903 902 902 904 905 906 908 908 909 909 910 911 911 912 912 912 912 912 911 912 913 914 916 917 918 918 918 918 919 919 920 920 920 920 920 921 920 920 919 918 918 918 917 916 915 915 916 917 918 918 918 918 917 917 917 918 918 918 919 919 920 921 921 920 919 918 918 918 919 920 920 920 920 921 921 921 921 922 922 921 921 919 918 917 917 918 918 918 918 918 917 917 918 919 920 921 922 921 921 920 919 919 919 919 919 918 918 918 918 918 919 920 920 921 921 921 921 922 922 922 922 922 922 922 922 922 923 923 923 923 923 922 922 921 920 920 920 920 921 923 925 927 925 924 923 921 921 921 921 922 923 922 921 922 922 922 922 922 921 921 920 920 919 919 919 919 920 920 920 920 920 919 919 919 919 920 920 920 919 919 918 918 918 918 917 916 916 916 916 915 915 915 915 915 915 916 917 917 918 918 918 917 917 917 917 916 915 915 916 917 917 918 918 920 922 923 920 920 921 923 923 923 923 923 923 922 922 922 922 922 923 923 924 924 925 925 926 926 926 926 924 924 925 925 926 926 926 927 928 928 927 927 927 926 926 925 924 924 924 924 924 923 924 924 924 924 924 924 924 924 924 924 923 925 926 927 928 928 929 929 930 930 930 931 931 931 931 931 931 932 933 933 935 936 937 937 937 937 937 937 937 937 937 937 937 937 937 937 937 938 937 936 935 936 937 937 937 937 936 935 934 933 932 931 929 928 925 922 922 922 922 923 925 927 929 930 931 931 932 934 936 937 939 940 942 943 945 946 946 946 947 947 946 946 945 944 943 941 939 939 938 938 937 937 937 936 935 936 936 936 937 937 936 936 935 935 935 935 935 935 935 934 934 934 934 934 935 935 935 934 933 932 931 929 928 927 927 926 926 926 926 926 927 927 927 927 926 924 923 923 923 923 923 923 922 922 921 921 921 921 921 921 922 922 922 922 922 923 923 923 924 925 925 926 926 925 924 924
896 896 896 897 896 896 896 896 897 897 898 899 898 898 897 897 897 897 894 893 892 891 893 894 896 896 897 896 896 895 896 896 896 896 895 894 892 890 888 886 888 893 895 895 895 896 897 898 897 895 895 894 894 893 893 892 892 892 891 890 889 888 887 887 889 889 889 889 889 889 888 888 883 882 882 882 882 882 883 884 886 886 885 885 886 886 886 886 886 886 885 884 881 881 881 882 883 884 885 887 887 888 887 887 887 886 886 885 885 885 883 884 886 887 887 882 885 889 892 893 894 894 894 895 896 897 898 897 897 897 896 897 897 899 900 901 901 903 902 897 897 899 901 902 902 901 901 902 902 902 902 902 901 902 903 903 903 903 904 904 905 905 903 903 902 900 899 900 901 902 903 903 903 904 904 904 903 903 902 902 904 905 906 908 908 909 909 910 911 911 912 913 913 912 912 911 912 913 915 916 917 917 918 918 918 919 919 920 920 920 920 920 921 921 920 920 919 919 918 917 916 915 915 916 916 918 918 918 918 917 917 917 918 918 918 919 919 920 921 921 920 919 919 918 919 919 920 920 920 920 921 921 921 921 921 921 920 920 918 918 917 917 918 918 918 918 918 918 917 918 919 919 921 922 921 921 921 920 920 920 920 919 919 919 918 918 918 919 920 920 921 921 921 921 921 921 921 921 921 921 921 922 922 922 922 922 922 923 922 921 921 920 920 921 922 923 925 927 926 923 922 922 921 920 921 920 921 921 921 921 922 922 922 921 922 921 920 920 920 919 919 919 919 920 920 920 920 920 919 919 919 919 919 920 920 919 919 918 918 918 918 917 915 915 915 915 915 915 915 915 915 915 916 917 918 919 918 918 917 917 917 916 916 916 916 916 917 917 918 917 919 920 921 921 921 921 920 921 921 922 922 922 922 922 922 921 921 922 922 924 925 925 926 926 926 926 925 924 922 923 923 924 924 925 927 927 927 927 927 927 926 925 925 924 924 924 923 923 923 923 923 924 924 923 923 923 923 923 923 922 924 925 927 927 928 929 929 929 930 930 931 931 931 931 931 931 932 933 934 935 936 936 937 937 937 937 937 937 937 937 937 937 937 937 937 938 938 937 936 936 937 937 937 937 937 936 935 935 933 932 930 929 928 924 922 922 922 922 925 927 929 930 930 931 932 932 935 936 937 939 940 942 943 944 945 946 947 947 947 946 945 945 943 942 940 939 938 937 937 937 936 936 935 935 935 936 937 937 937 936 934 934 934 934 933 933 932 933 933 931 931 932 932 933 933 933 932 931 930 932 932 930 928 927 926 926 925 925 926 927 927 927 927 926 924 924 923 923 923 923 923 922 921 921 921 920 920 920 921 921 921 922 922 922 922 923 923 924 925 925 926 926 925 924 924
897 898 898 899 898 898 897 897 897 898 898 899 899 899 898 897 896 894 892 892 893 893 893 895 896 896 896 895 895 896 896 897 896 895 893 892 889 886 884 886 889 894 895 896 897 899 899 899 897 896 896 895 894 894 893 892 892 893 892 892 890 889 889 890 890 890 889 889 889 890 890 889 885 882 882 882 882 882 882 882 883 883 883 883 883 883 884 884 884 884 884 882 880 881 882 883 883 885 885 887 887 888 887 887 887 886 886 885 884 884 883 884 885 887 886 882 886 890 893 894 895 895 895 896 896 896 896 896 896 896 896 897 898 899 900 900 899 899 899 898 898 900 901 901 902 901 900 900 901 900 901 900 901 901 903 904 903 903 903 904 904 904 904 903 902 901 900 900 901 902 903 904 904 904 904 904 903 903 902 902 904 905 906 908 908 909 909 910 911 911 912 913 913 912 912 911 912 913 915 916 917 917 917 918 918 918 918 919 920 920 921 921 921 922 921 920 920 919 918 917 916 915 915 916 916 917 918 918 918 917 917 917 918 918 918 919 919 921 921 921 920 920 919 918 919 919 920 920 920 920 921 921 921 920 920 920 920 919 918 917 917 918 918 918 919 919 918 917 917 917 918 920 921 921 921 921 921 921 921 921 920 920 920 919 919 918 918 919 920 920 921 921 921 921 921 921 921 920 920 921 921 922 922 922 922 922 922 922 922 921 921 920 920 921 923 924 926 928 925 923 921 921 921 920 920 920 920 921 921 921 921 921 922 921 921 921 920 920 920 919 919 919 919 919 920 920 920 919 919 918 918 919 919 920 920 919 919 918 917 917 918 917 914 914 914 915 915 915 915 915 915 915 916 918 918 919 918 918 917 917 916 916 916 917 917 917 918 917 915 917 920 922 923 922 922 921 921 920 921 921 921 921 921 921 921 921 921 921 921 923 924 925 926 926 926 926 925 923 921 920 921 922 923 925 927 927 927 926 927 926 926 924 924 923 924 924 923 923 923 922 923 924 923 922 922 922 923 922 922 922 923 924 926 927 928 928 929 929 929 930 930 930 930 930 931 932 933 933 934 935 936 936 937 937 937 937 937 937 937 937 937 937 937 937 938 938 938 938 937 937 937 937 937 937 937 936 935 934 932 931 928 927 926 923 922 922 923 924 926 927 929 930 931 931 932 933 935 936 937 939 939 941 942 944 946 947 948 946 946 946 945 944 942 941 940 938 936 936 936 936 936 936 935 935 935 936 937 937 937 936 935 934 933 933 932 931 931 931 930 930 929 929 929 931 931 931 929 928 927 930 932 931 930 928 927 926 925 925 926 926 927 927 927 926 925 924 923 923 923 923 923 922 921 921 921 920 920 920 921 921 921 922 922 922 922 923 923 924 925 925 926 926 925 924 925
899 900 900 900 900 899 898 898 898 899 899 900 899 899 898 896 894 893 893 894 896 894 893 894 895 895 895 895 896 897 896 897 895 893 890 888 885 886 886 889 892 896 897 899 899 900 899 899 897 897 896 895 895 894 893 893 893 893 893 892 892 892 891 891 890 889 889 888 890 891 891 891 887 884 883 882 882 882 882 882 882 882 882 882 882 882 882 882 882 882 882 882 883 883 883 884 884 885 885 887 887 888 887 887 887 886 885 884 884 883 883 882 882 883 884 883 887 890 894 894 895 896 896 896 895 895 895 895 895 896 896 897 898 899 899 900 899 898 898 897 898 899 900 901 902 900 900 898 899 899 899 900 900 901 902 904 904 903 903 903 904 904 904 903 902 901 902 902 902 903 903 904 904 904 904 904 903 903 902 902 904 905 907 908 909 909 909 910 911 911 911 912 912 912 912 911 912 913 914 916 917 917 917 917 917 918 918 919 919 920 921 922 922 923 922 921 921 920 919 917 916 915 915 915 916 917 918 917 917 917 917 917 918 918 918 919 920 920 921 922 920 920 919 918 919 919 920 920 920 920 921 921 921 920 920 919 919 918 918 917 917 918 918 918 919 919 918 917 916 917 918 919 920 921 921 921 921 921 921 921 921 921 920 919 919 918 918 919 920 921 921 921 921 921 921 921 921 920 920 920 921 921 921 922 922 922 922 922 921 921 920 920 920 920 921 922 925 926 925 923 922 920 920 920 919 920 920 920 921 921 921 921 921 921 920 920 920 920 919 919 919 918 919 919 920 921 920 919 918 917 918 918 919 919 919 918 918 917 916 917 918 916 914 914 914 915 915 915 915 915 915 915 917 918 919 918 917 917 917 916 916 916 916 916 917 918 918 917 915 917 921 924 924 923 923 922 921 921 920 921 921 921 921 921 921 921 921 921 921 922 924 924 925 925 924 923 923 922 921 921 921 921 922 924 925 926 926 926 926 925 925 924 923 923 923 923 923 923 922 922 922 923 923 922 922 922 922 922 922 922 922 924 925 926 928 928 929 929 929 929 930 930 930 931 932 932 933 934 934 935 936 936 937 937 937 937 937 938 938 938 938 939 938 938 938 939 939 939 937 937 936 936 936 936 936 935 934 933 931 930 927 925 924 923 923 924 925 925 926 928 929 931 931 932 933 934 935 936 937 939 939 940 941 943 946 948 948 946 945 944 944 944 942 941 939 938 935 935 935 936 936 936 935 935 935 936 937 938 937 936 935 933 932 932 930 930 929 929 929 929 929 928 928 929 929 928 927 926 926 928 931 932 931 930 928 927 926 925 926 926 927 927 927 926 925 924 924 923 923 923 922 921 921 921 920 920 920 920 920 920 920 921 921 921 922 922 923 924 925 925 926 926 925 925 926
900 901 901 901 901 899 899 898 899 899 900 900 898 898 896 894 894 893 894 896 897 896 894 894 895 896 896 896 896 897 896 895 894 891 887 885 885 890 892 893 896 899 900 901 900 900 900 899 898 897 896 896 895 894 894 894 894 893 893 893 893 892 891 890 889 889 889 889 891 892 893 892 889 887 887 886 884 885 884 883 883 883 884 885 886 885 884 884 884 884 884 884 884 884 884 884 884 885 885 887 887 887 887 887 887 886 885 884 883 883 883 882 882 882 882 884 887 891 894 895 895 896 896 896 895 895 894 895 895 896 897 897 898 898 899 899 899 898 897 897 897 898 900 901 901 900 899 898 898 898 899 899 900 901 902 903 904 903 903 902 903 903 903 903 903 902 903 903 903 903 904 904 904 904 904 903 903 903 902 902 904 905 908 909 909 909 910 910 910 910 910 911 911 911 911 911 912 913 914 916 917 917 917 917 917 917 918 918 919 920 920 922 922 923 922 922 921 920 919 917 916 915 914 915 916 917 917 917 917 917 917 917 918 918 918 919 920 921 922 922 920 920 919 918 918 919 920 920 920 920 921 921 921 920 920 919 919 918 918 917 917 918 918 918 919 918 918 917 916 916 918 919 920 921 921 921 921 921 921 921 921 921 920 920 919 918 918 919 920 920 921 921 921 921 921 921 921 920 920 920 921 921 921 922 922 922 922 922 921 921 920 920 920 920 919 919 920 924 925 924 922 921 921 920 919 919 920 920 920 920 920 920 920 920 920 920 920 920 919 919 918 918 919 920 920 922 921 920 919 917 917 917 918 918 919 918 917 916 916 917 918 916 914 914 914 915 915 915 915 915 915 915 917 918 919 918 917 917 916 916 916 916 916 916 916 918 918 917 916 918 922 924 924 924 923 922 921 921 920 920 921 921 921 921 921 921 921 921 921 921 922 923 924 922 922 921 921 921 921 923 923 922 922 923 923 924 924 924 925 924 924 923 923 923 922 922 922 922 922 922 922 922 922 922 922 922 923 923 923 923 924 925 925 927 928 928 929 929 929 930 930 930 930 931 932 932 933 934 934 935 936 936 937 937 938 938 938 939 939 939 940 941 940 938 939 939 939 938 937 937 935 935 935 935 935 934 933 932 931 929 926 925 922 924 924 925 926 926 927 929 930 931 932 933 933 935 935 937 938 939 939 940 940 942 946 948 947 944 943 944 944 943 942 940 938 936 934 935 935 935 936 936 935 935 935 936 937 937 937 935 934 933 932 931 930 929 928 928 929 929 929 929 928 927 927 926 926 926 926 928 929 931 932 931 929 928 926 925 925 926 927 927 926 926 925 924 924 924 923 923 923 921 921 920 922 923 923 923 919 919 919 920 920 920 922 922 923 924 925 925 926 926 927 927 928
901 902 903 903 902 900 899 898 899 899 900 900 898 896 895 895 895 894 894 897 897 896 895 895 896 897 897 897 896 895 893 893 892 889 884 885 892 896 898 897 900 901 901 901 901 900 900 899 898 897 896 896 895 895 894 894 894 894 893 893 893 891 891 890 890 891 891 891 892 893 894 894 892 891 890 888 886 887 887 887 886 887 888 888 888 887 886 886 885 885 885 885 885 884 884 884 884 884 885 886 887 886 886 887 886 886 885 884 883 883 882 882 882 880 884 888 890 893 894 895 896 896 897 896 895 895 894 895 896 896 897 898 898 898 899 899 898 898 897 897 897 898 899 900 900 899 898 898 897 898 899 899 900 900 902 902 903 903 903 902 902 902 902 902 902 903 903 903 903 903 904 904 904 903 904 904 904 903 903 904 904 906 907 909 909 909 908 908 908 909 909 910 910 910 911 912 912 913 915 916 917 917 917 917 916 917 917 918 919 919 920 921 922 922 922 922 921 921 919 918 916 915 914 915 916 916 917 917 917 917 917 917 918 918 919 919 920 921 922 922 920 920 918 918 918 919 920 920 920 920 921 921 921 920 920 919 919 918 918 917 917 918 918 918 918 918 917 917 916 916 917 919 920 921 921 921 921 921 921 921 921 921 920 920 919 918 918 919 919 919 920 920 921 921 921 921 920 920 920 920 920 921 921 921 921 921 921 921 921 921 920 920 920 920 919 919 920 922 923 925 923 922 921 920 918 919 919 920 920 920 920 920 920 920 920 920 920 920 919 919 919 918 920 920 921 923 921 920 919 917 917 917 918 918 918 918 917 917 916 917 918 916 914 914 914 915 915 915 915 915 915 915 918 919 919 918 917 916 916 916 916 916 916 916 916 917 918 918 917 919 922 924 924 923 923 922 921 921 920 920 920 920 920 920 921 921 921 920 920 920 921 922 922 921 920 921 922 923 923 924 925 924 923 923 922 921 921 922 923 923 923 923 922 922 922 922 922 921 921 922 922 922 922 922 922 922 923 924 924 924 923 925 925 926 927 928 929 930 930 930 930 930 931 931 932 932 933 934 934 935 936 936 937 938 938 939 939 939 940 941 941 943 943 939 939 939 938 938 936 936 935 934 934 935 934 933 933 931 930 928 925 923 923 925 926 926 926 928 928 929 930 932 933 934 935 936 936 937 938 939 939 940 940 942 945 948 946 943 943 943 943 942 941 939 937 935 934 934 935 935 935 935 935 935 935 936 936 937 936 935 934 933 931 930 930 929 928 929 929 929 930 929 928 927 926 926 926 926 926 927 928 930 931 931 929 928 925 925 925 926 926 927 926 926 925 924 924 924 923 923 923 921 921 920 922 925 927 923 919 919 919 919 919 920 922 922 923 924 925 925 927 927 928 928 930
902 903 904 904 903 902 900 899 900 900 900 900 898 896 895 897 897 895 894 896 896 895 895 896 898 898 898 896 895 893 890 890 890 887 885 889 893 898 900 901 901 901 901 901 901 901 900 899 898 898 897 896 895 895 895 895 895 894 894 893 892 891 891 891 891 892 892 893 894 894 895 895 894 893 892 889 889 889 890 890 889 890 890 890 889 889 888 887 886 886 886 886 886 885 885 884 884 884 885 885 886 886 886 886 886 886 884 883 883 883 882 882 881 882 888 891 892 894 895 895 896 897 897 896 895 895 895 895 896 896 898 898 898 899 899 899 898 898 897 896 897 898 899 899 899 899 898 897 897 898 898 899 899 899 901 901 902 902 901 901 901 901 901 902 902 902 902 903 903 903 903 903 903 903 903 903 904 904 904 905 906 907 908 909 908 907 907 906 907 907 909 909 910 911 912 912 912 913 915 916 917 917 917 916 916 917 917 918 918 919 920 920 922 922 922 922 921 921 919 918 916 915 914 915 916 916 917 917 917 917 916 917 918 918 919 920 920 921 922 922 920 920 918 918 919 919 920 920 921 921 921 921 921 920 919 919 918 918 918 917 917 917 917 917 918 917 916 916 915 916 917 919 920 921 921 921 921 921 921 921 921 921 920 920 919 918 918 918 918 918 918 919 920 920 921 920 920 920 919 920 920 920 921 921 921 921 921 921 920 920 920 920 920 920 919 919 920 921 922 924 924 922 920 919 918 919 919 920 920 920 920 920 920 920 920 920 920 920 919 919 919 919 920 921 922 923 922 920 919 917 917 917 918 918 918 917 917 917 916 917 918 916 914 914 914 915 915 915 915 915 915 915 918 919 918 917 917 916 916 916 916 916 916 917 917 917 917 917 918 919 921 923 923 923 923 922 921 921 921 921 921 920 920 920 920 920 920 920 920 920 920 920 920 921 922 923 924 925 926 926 927 927 926 925 924 924 922 922 922 922 922 922 922 922 922 922 921 921 921 922 922 922 922 922 922 922 923 924 923 923 922 924 924 926 926 928 928 930 930 930 930 931 931 931 932 932 933 934 934 935 936 936 937 938 938 939 939 940 940 941 942 943 942 939 939 938 938 937 936 935 935 934 934 933 933 932 931 930 929 927 924 922 925 926 926 926 927 928 929 930 930 932 933 935 936 936 937 937 938 939 940 941 941 942 946 946 944 941 942 942 942 942 940 938 936 935 934 934 934 934 934 934 935 935 935 935 935 936 935 934 933 932 931 930 930 929 929 929 929 930 930 929 928 927 926 926 926 926 926 926 928 929 930 931 929 927 925 924 925 926 926 927 926 926 925 924 924 924 923 923 923 921 921 920 922 925 927 921 918 918 918 918 919 920 921 922 923 924 925 926 927 929 929 929 930
904 905 905 905 904 903 901 900 900 900 900 900 899 896 895 896 897 896 895 895 896 896 897 898 898 897 896 894 893 891 888 887 885 885 888 893 897 900 902 902 901 900 901 901 901 901 901 899 899 898 897 896 896 896 895 895 895 894 895 894 894 893 893 894 893 893 893 894 895 895 896 896 894 894 892 890 890 891 892 892 892 891 891 890 889 889 888 887 887 888 888 889 888 888 887 885 885 884 884 884 885 885 885 885 885 885 883 884 884 884 882 882 881 887 889 891 892 895 895 895 896 897 897 896 896 896 896 896 897 897 898 898 898 898 898 898 898 897 897 896 896 897 898 898 898 897 897 896 896 897 897 898 898 899 899 900 901 901 900 900 900 900 901 901 901 902 902 902 902 902 902 902 902 902 902 902 903 904 904 905 905 906 906 907 905 906 906 906 907 908 909 910 911 912 914 913 912 913 914 916 916 916 916 916 916 916 917 918 918 919 920 920 921 922 921 921 921 920 919 918 916 915 914 915 915 916 917 916 916 916 916 917 918 918 918 919 920 921 922 922 920 920 918 918 919 920 920 921 921 921 921 921 921 920 919 919 918 918 917 917 917 917 917 917 917 917 916 915 915 916 917 919 920 921 921 921 921 921 921 921 921 921 920 920 919 918 918 917 917 917 917 918 919 919 921 920 920 920 919 920 920 920 921 921 921 921 921 921 920 920 920 920 920 920 919 919 920 921 922 923 923 921 920 918 918 918 919 919 919 920 920 920 920 920 920 920 920 920 920 919 919 919 920 921 922 923 922 920 919 917 917 917 918 918 918 918 917 917 917 917 918 916 914 914 914 915 915 915 915 915 915 916 919 918 917 917 916 916 916 916 917 917 917 917 917 917 917 917 918 919 920 922 922 922 922 922 922 922 922 922 922 920 920 919 919 920 920 921 923 922 921 921 921 922 923 924 926 926 927 927 928 928 928 927 926 926 925 924 922 923 922 922 922 922 922 922 921 922 921 922 922 922 922 922 922 922 923 923 923 921 922 923 924 925 926 927 928 929 930 930 930 931 931 931 932 932 933 934 934 935 935 936 937 937 938 939 939 940 940 940 941 941 939 938 938 938 938 937 936 935 934 933 933 932 932 931 930 928 928 925 923 923 924 926 926 926 927 927 929 929 930 932 932 934 934 935 936 936 937 938 939 942 942 944 944 942 941 939 940 940 940 940 938 937 935 934 933 933 933 934 934 934 934 934 934 934 935 935 934 934 932 931 931 930 930 929 929 929 930 930 931 930 927 926 926 925 925 925 925 926 927 928 929 930 930 928 926 924 925 926 927 927 926 925 925 924 924 924 923 923 923 922 921 920 922 925 926 921 918 918 918 918 918 920 921 922 924 925 925 927 928 929 929 929 929
906 907 907 906 905 903 902 901 901 901 901 901 900 898 897 896 896 896 896 896 897 897 897 898 899 897 895 894 892 890 887 884 885 888 893 897 901 903 903 901 901 900 901 901 901 902 901 900 899 898 898 897 896 896 895 896 896 896 896 896 896 896 896 896 896 895 895 895 896 897 897 896 895 894 892 891 892 894 895 896 894 893 892 891 890 890 889 888 888 889 889 890 890 889 888 887 886 885 884 884 884 884 884 885 885 882 883 884 884 885 883 882 882 887 890 892 893 894 896 896 896 896 896 896 897 897 897 897 897 897 898 898 898 898 898 898 897 897 896 896 896 896 897 897 897 896 896 896 896 896 897 898 898 899 899 899 900 900 900 900 900 900 901 901 901 902 902 901 902 902 902 902 902 902 902 902 903 903 904 904 903 904 904 905 904 905 906 908 908 909 910 911 913 913 914 913 912 912 913 915 915 915 915 915 915 915 917 917 918 919 919 920 921 921 920 920 920 920 919 917 916 915 914 915 915 916 916 916 916 916 916 916 917 918 918 919 920 921 922 922 920 920 918 918 919 920 920 921 921 921 921 922 921 920 919 919 918 918 917 917 917 917 917 917 917 916 916 915 914 915 917 918 920 921 921 921 921 921 921 921 921 921 920 920 919 918 918 917 917 916 917 917 918 919 920 920 920 919 919 919 920 920 920 920 920 920 920 920 920 920 920 920 919 919 919 919 920 921 922 923 923 921 920 918 917 917 918 918 918 919 919 920 920 920 920 920 920 920 920 919 919 919 920 921 922 923 922 920 919 917 917 917 917 917 918 917 917 917 917 918 917 916 914 914 914 915 915 915 915 915 916 917 919 917 917 916 916 917 917 918 918 918 918 918 918 918 918 918 917 919 920 922 922 922 922 922 922 922 922 922 922 921 920 919 919 920 921 921 923 924 923 923 923 923 925 926 926 926 927 927 928 928 928 927 927 927 926 925 924 923 923 922 922 922 922 922 921 922 922 922 922 922 922 922 922 922 923 922 922 921 922 923 924 925 926 927 928 929 930 930 930 931 931 931 932 932 933 933 934 935 935 936 936 937 938 939 939 940 941 940 939 939 938 938 938 938 937 936 935 934 933 932 932 931 931 930 929 928 926 925 922 923 924 925 926 926 926 927 928 929 930 931 931 932 933 934 935 935 935 936 939 941 942 939 938 938 937 937 937 938 939 939 938 937 935 933 932 933 933 933 933 933 933 933 934 934 935 934 934 933 932 931 930 930 929 929 929 930 931 931 931 930 928 927 926 925 925 925 925 926 926 927 929 929 931 929 926 924 925 926 927 927 927 926 925 924 924 924 924 923 923 922 921 920 922 925 925 922 920 919 918 918 918 919 921 923 924 925 926 928 929 929 928 928 929
907 908 908 908 906 905 903 902 902 902 901 901 900 899 898 897 897 897 897 898 899 898 898 899 899 897 895 892 890 887 884 885 888 894 898 901 903 903 902 901 901 900 901 901 902 902 901 901 900 899 899 898 897 896 896 897 897 897 897 897 897 897 897 897 897 897 897 897 897 898 898 895 895 896 895 894 895 896 898 898 896 893 892 892 891 891 890 890 889 890 890 890 891 890 890 889 887 887 885 885 884 884 884 884 883 882 883 884 884 885 883 881 884 888 890 892 894 895 897 897 897 897 897 897 897 897 897 897 897 897 897 897 898 898 898 898 897 897 896 896 896 896 896 897 897 895 896 896 896 896 897 897 898 898 899 899 900 900 900 900 900 900 900 900 901 901 901 901 902 902 902 901 901 901 901 902 903 904 904 904 903 903 903 904 905 906 907 908 909 910 912 912 913 913 913 913 912 912 913 913 913 913 913 913 914 914 916 917 918 919 919 920 921 921 920 919 919 919 918 917 916 915 914 914 915 915 915 915 915 916 916 916 917 917 918 919 919 921 921 921 920 920 918 918 919 920 920 921 921 921 922 922 921 920 919 919 918 917 917 917 917 917 917 917 917 916 915 915 914 914 916 918 920 921 921 921 921 921 921 921 921 921 920 920 919 918 918 917 917 916 916 917 917 919 919 919 919 919 919 919 919 919 919 919 919 919 919 920 920 920 919 919 919 919 919 919 919 920 922 923 923 921 920 918 917 917 917 917 917 918 918 919 919 920 920 920 920 920 920 919 919 919 920 921 922 923 922 920 919 917 917 917 917 917 917 917 917 917 918 919 917 916 914 914 914 915 915 915 916 916 916 916 917 916 916 916 917 917 918 919 919 919 919 918 918 918 918 918 918 919 920 921 922 922 922 922 922 922 922 922 922 921 920 919 919 920 921 921 923 924 924 924 924 925 926 926 926 926 927 927 928 928 928 927 927 927 926 926 925 924 923 922 922 922 923 923 922 922 922 922 921 921 921 922 922 922 921 921 922 922 922 923 924 924 926 927 928 929 930 930 930 931 931 931 932 932 933 933 934 934 935 935 936 936 937 938 939 940 941 939 939 939 937 937 937 937 937 936 934 933 932 931 931 930 929 929 928 926 925 922 922 924 924 925 925 926 926 927 928 929 930 930 931 931 932 932 933 934 934 935 938 939 938 935 934 934 935 935 935 936 937 937 937 935 934 932 932 933 933 933 933 933 933 933 933 934 934 934 934 933 932 930 930 929 929 930 930 930 931 931 931 930 929 927 926 925 925 925 925 925 926 927 928 929 930 929 926 923 924 926 927 928 927 926 925 924 925 925 925 923 923 922 921 921 923 926 925 923 922 921 920 920 920 921 921 924 925 927 927 928 929 929 928 928 928
908 908 909 910 908 906 904 903 902 902 902 901 900 899 899 898 898 898 898 899 899 899 899 899 899 896 894 890 888 885 884 889 894 899 903 903 903 902 902 901 901 900 901 901 902 903 902 902 901 901 900 899 898 898 897 898 899 900 900 900 900 899 899 899 899 899 899 899 899 898 897 896 896 897 898 896 897 899 898 894 893 892 892 892 892 891 891 890 890 890 891 891 891 891 890 890 889 888 887 886 885 884 884 885 883 882 883 883 884 885 882 882 885 888 891 893 895 896 898 898 897 897 897 897 897 897 897 897 897 897 897 897 898 898 898 897 897 897 896 895 895 896 896 896 896 895 895 895 895 896 896 897 897 898 898 898 899 899 899 899 899 899 900 900 900 900 900 901 901 901 901 901 901 901 901 902 903 904 904 904 904 904 904 905 906 906 908 909 910 911 912 912 912 913 913 912 913 913 913 913 912 911 911 911 912 914 915 916 918 919 919 920 921 920 919 919 919 919 919 918 917 915 913 913 914 914 915 915 915 915 915 916 917 917 918 918 919 920 920 921 920 920 918 918 919 920 920 921 921 921 922 922 922 920 919 918 918 917 917 917 917 917 917 917 917 916 915 914 913 914 916 918 920 921 921 921 921 921 921 921 921 921 920 920 919 918 918 917 916 915 915 916 917 918 919 919 919 918 918 918 918 918 918 918 918 919 919 919 919 919 919 919 919 918 918 918 919 920 921 922 923 921 920 918 917 917 916 916 916 917 917 919 919 920 920 920 920 920 920 919 919 919 920 921 922 923 922 920 919 917 917 917 917 917 917 918 918 918 918 918 917 915 914 914 915 915 916 915 916 916 916 916 916 916 916 916 917 918 918 920 919 919 919 919 918 918 918 918 918 919 920 921 922 922 923 923 923 923 923 923 923 921 921 920 920 920 922 922 923 924 924 925 925 926 926 926 926 926 927 927 928 928 928 927 927 927 926 925 925 924 923 923 922 922 923 922 922 921 922 922 920 919 920 922 923 920 920 920 921 921 922 923 923 925 925 926 927 928 930 930 930 931 931 931 932 932 933 933 934 934 934 936 936 936 937 938 938 939 940 939 939 939 938 938 938 937 936 934 933 931 930 930 929 929 928 927 926 925 923 922 923 924 925 925 925 926 926 927 928 929 929 930 931 931 932 932 931 932 932 934 937 937 934 934 933 933 933 933 934 934 934 934 933 932 931 930 930 931 931 932 932 932 933 933 933 933 933 934 933 933 931 930 929 929 930 930 931 931 931 932 932 931 928 927 926 925 925 924 924 925 925 927 928 929 930 929 926 923 924 925 926 927 927 925 925 925 926 926 925 923 923 922 922 923 924 927 926 925 923 922 922 921 922 923 923 925 926 927 927 928 928 929 929 929 929
909 909 910 911 910 907 904 902 902 902 902 901 900 900 899 899 899 899 899 900 900 900 900 900 898 894 891 888 885 885 890 896 900 903 903 903 903 902 902 901 900 900 901 902 902 903 903 902 902 901 901 900 900 899 899 900 901 902 902 902 901 901 900 901 901 900 901 901 900 899 897 897 897 898 899 899 899 899 898 893 892 893 892 893 892 891 892 891 891 891 891 891 891 891 890 890 889 888 888 887 885 885 884 885 884 882 882 883 884 885 882 883 886 889 891 892 895 896 898 897 897 896 896 897 897 897 897 897 897 897 897 897 897 897 897 896 896 896 895 895 895 895 895 895 895 895 894 894 894 895 896 897 897 897 897 898 898 898 898 898 899 899 899 899 899 899 899 900 900 901 901 901 901 901 901 903 903 904 904 904 904 904 904 906 906 907 908 909 910 911 912 912 912 913 913 913 913 913 913 913 912 910 910 910 911 913 914 916 917 919 919 920 921 920 920 919 919 919 919 919 919 915 912 913 914 915 916 916 916 915 915 916 917 917 918 918 919 919 920 921 920 919 919 918 919 920 920 921 921 921 922 922 921 920 919 918 917 917 917 917 917 917 917 916 916 916 915 914 913 914 917 919 920 922 922 921 921 921 921 921 921 921 920 920 919 918 918 916 915 915 914 916 917 917 919 918 918 918 918 918 918 918 918 918 918 918 918 918 918 919 919 920 919 918 918 917 918 920 921 922 923 921 920 918 917 917 916 916 916 917 917 918 919 919 919 919 920 920 920 919 919 919 920 921 921 922 921 920 919 917 917 917 917 917 917 918 918 919 916 915 915 915 914 914 915 915 916 916 916 916 915 915 916 917 917 917 918 918 919 920 920 920 919 919 919 919 918 918 918 919 920 921 921 922 922 923 923 923 923 923 923 922 921 921 920 921 922 922 923 924 924 925 926 926 926 926 926 926 926 927 927 927 927 927 927 926 926 925 925 924 923 923 923 923 923 922 922 921 923 923 921 919 920 922 923 920 919 919 920 920 921 922 922 924 924 926 926 927 928 929 930 930 930 931 931 932 932 933 934 934 934 935 936 936 937 938 938 939 939 939 939 939 939 939 937 936 933 932 931 930 928 928 928 927 927 926 924 923 922 924 924 924 926 926 926 926 926 927 928 929 929 930 931 931 931 931 931 931 931 932 936 935 934 933 932 932 932 932 932 932 932 931 930 929 928 928 928 929 929 931 932 932 932 933 933 933 933 933 933 932 931 930 929 930 930 931 931 932 932 931 931 930 929 927 926 925 925 924 925 925 926 927 928 929 930 929 926 923 923 923 925 925 926 925 925 926 926 925 925 924 923 922 923 925 926 927 927 927 925 923 923 923 924 925 925 926 926 926 926 927 928 929 929 929 929
910 911 911 909 908 906 903 901 901 901 901 901 901 901 901 901 901 901 901 901 902 901 900 899 896 891 888 885 886 892 897 901 903 902 902 902 902 902 901 901 901 901 902 902 903 904 903 902 902 901 900 900 900 901 901 903 903 903 904 903 902 902 901 902 902 902 901 901 901 901 899 899 899 900 900 900 899 898 897 893 893 893 893 893 893 893 892 892 892 892 891 891 892 891 890 890 889 888 888 887 886 886 885 885 885 883 882 883 884 885 882 883 886 889 890 892 893 894 896 895 895 895 895 896 896 896 896 896 896 896 896 896 896 896 896 895 895 895 894 894 895 895 895 895 894 894 894 894 894 895 896 897 897 897 897 897 897 897 898 898 898 898 898 898 898 898 899 899 899 900 900 900 901 901 902 903 903 904 904 904 905 905 905 906 907 908 909 909 910 911 912 912 912 913 913 913 913 913 913 913 912 910 910 910 911 912 915 916 917 919 919 921 921 920 920 919 919 919 919 920 919 914 912 913 915 918 918 918 917 916 915 916 917 917 918 918 919 919 920 920 919 919 918 918 919 920 920 921 921 921 921 922 921 920 919 917 917 917 917 917 917 917 917 916 916 916 915 914 913 914 917 919 921 922 922 922 922 922 921 921 921 921 920 920 919 919 918 916 915 914 913 915 916 917 918 918 918 918 917 917 917 917 917 918 918 918 918 918 918 919 919 920 919 919 918 917 918 919 921 922 923 921 920 918 917 917 916 916 916 917 917 918 919 919 919 919 919 919 919 919 919 919 920 921 921 921 920 920 919 917 917 917 917 917 916 918 918 918 914 913 913 914 914 915 915 916 916 916 916 915 915 915 915 917 917 918 918 919 919 920 920 920 920 920 919 919 918 918 917 918 919 921 921 922 922 923 923 923 923 923 923 922 921 921 920 920 921 922 922 924 924 925 926 926 926 926 926 926 926 926 927 927 926 926 926 925 925 925 924 924 924 924 923 923 924 922 922 921 923 923 922 919 920 922 923 921 919 919 919 919 920 921 922 923 924 925 924 925 927 928 928 929 930 931 931 931 931 931 932 933 934 935 936 936 937 938 938 939 939 939 939 939 939 939 936 934 931 930 930 928 927 927 926 926 926 925 923 922 924 925 925 925 926 927 927 927 927 927 928 929 930 930 930 930 930 930 930 930 930 930 931 932 932 932 931 931 930 930 930 929 929 928 927 926 926 925 925 925 928 930 931 931 932 932 932 933 933 932 932 932 931 930 929 930 930 931 932 931 931 930 930 929 928 926 926 925 926 925 925 926 927 927 929 929 929 929 928 924 924 924 925 925 925 925 925 926 926 925 925 924 923 923 923 925 925 926 926 926 926 925 925 925 925 926 926 926 926 926 926 927 928 928 929 929 930
912 911 911 909 906 904 902 900 900 901 901 902 902 902 902 902 902 903 902 902 901 900 899 898 894 889 884 887 892 896 900 902 903 902 902 902 902 902 901 901 902 902 903 903 904 904 903 902 901 900 900 900 901 903 903 904 905 904 904 903 903 902 902 903 902 902 901 901 901 901 900 900 900 901 900 899 898 898 896 894 894 894 894 894 894 894 893 893 893 893 893 893 892 891 890 890 889 888 888 886 886 885 886 886 886 884 883 883 884 885 882 882 885 888 889 891 892 894 894 894 894 894 894 895 895 896 896 896 895 895 895 895 895 895 895 895 894 894 894 894 894 894 894 894 894 894 894 894 894 895 896 897 897 897 897 896 896 897 898 898 898 898 898 898 898 898 899 898 899 900 900 900 901 901 902 903 903 904 904 904 905 905 906 906 907 908 909 909 910 911 912 912 912 913 913 913 913 913 913 912 912 911 910 911 912 913 915 916 918 918 919 921 921 920 920 919 919 919 919 920 919 914 914 916 918 920 920 920 919 917 916 916 917 917 918 918 919 920 920 921 919 919 918 918 919 920 920 921 921 921 921 921 921 919 919 917 917 917 917 917 917 917 917 916 916 915 915 914 913 915 917 919 921 922 922 922 922 922 922 921 921 921 920 920 919 919 918 916 915 913 913 914 916 917 918 918 918 917 917 917 917 917 917 918 918 918 918 918 919 919 920 920 920 919 918 917 918 919 921 922 923 921 920 918 917 917 916 916 916 916 917 918 919 919 919 919 918 918 918 919 919 919 919 919 919 920 919 918 918 917 917 917 916 916 916 918 919 916 913 913 914 914 915 915 916 915 915 915 915 915 914 914 915 916 917 918 918 919 919 920 920 920 920 920 919 919 917 917 916 917 918 920 921 922 922 923 923 923 923 922 922 922 921 921 920 920 921 921 922 923 924 925 926 926 926 926 926 926 926 926 927 926 926 926 925 925 925 924 924 923 924 924 923 923 924 922 922 921 923 923 922 919 919 923 923 921 920 919 919 919 920 920 922 922 924 924 924 925 925 927 927 929 930 930 930 930 930 930 931 933 933 935 935 936 937 938 938 939 939 939 939 939 938 937 934 932 930 929 928 927 926 925 925 925 925 923 922 924 924 925 926 926 927 927 927 927 927 927 928 929 930 930 929 929 929 929 929 929 929 930 930 931 931 931 930 930 929 928 928 928 928 928 926 925 924 923 922 924 927 929 930 931 931 932 932 932 932 932 931 931 930 930 929 930 930 931 931 931 930 929 930 928 927 927 926 925 926 927 927 928 928 929 929 929 929 928 928 926 926 926 926 925 925 925 925 925 925 925 924 924 924 923 923 924 924 925 925 925 926 926 926 926 926 926 926 926 926 926 926 926 927 928 929 930 931
