ncols        434
nrows        45
xllcorner    619982.677827
yllcorner    5797050.49353
cellsize     18.758564863640
NODATA_value 32767
961 962 964 965 966 966 966 967 969 969 969 969 968 968 967 967 968 969 970 970 970 969 970 971 972 973 974 975 976 977 977 977 977 977 978 979 979 979 979 980 980 980 981 982 984 985 985 985 985 986 986 988 990 991 994 995 996 998 998 999 1000 1002 1002 1003 1004 1004 1005 1005 1006 1006 1007 1009 1010 1011 1013 1014 1016 1016 1016 1016 1017 1019 1019 1020 1020 1020 1019 1020 1022 1022 1023 1023 1023 1023 1023 1023 1023 1023 1024 1025 1025 1026 1026 1027 1029 1030 1030 1031 1032 1032 1032 1033 1033 1034 1034 1035 1035 1035 1034 1034 1034 1037 1038 1039 1039 1038 1038 1039 1039 1038 1038 1038 1038 1037 1038 1039 1041 1042 1044 1045 1045 1046 1046 1046 1046 1045 1045 1044 1044 1044 1044 1043 1043 1042 1042 1041 1041 1042 1042 1042 1043 1043 1043 1043 1042 1043 1043 1044 1044 1043 1042 1041 1040 1039 1038 1037 1035 1034 1032 1031 1029 1028 1027 1025 1024 1024 1023 1022 1021 1020 1019 1019 1019 1019 1019 1019 1022 1023 1024 1026 1024 1023 1027 1031 1035 1036 1038 1038 1039 1041 1044 1046 1049 1051 1054 1056 1059 1061 1065 1069 1072 1077 1079 1080 1080 1081 1083 1085 1088 1091 1093 1093 1092 1092 1092 1092 1093 1093 1095 1096 1098 1100 1099 1100 1101 1102 1101 1100 1102 1104 1106 1107 1109 1111 1111 1112 1113 1112 1110 1109 1107 1108 1109 1109 1110 1111 1112 1112 1113 1113 1114 1114 1114 1115 1116 1116 1116 1116 1114 1113 1111 1110 1108 1105 1102 1099 1096 1091 1085 1080 1074 1071 1069 1069 1067 1066 1065 1062 1061 1059 1059 1059 1058 1057 1057 1056 1056 1056 1056 1056 1056 1058 1061 1061 1062 1062 1063 1062 1064 1065 1067 1068 1068 1067 1067 1067 1068 1069 1070 1071 1072 1073 1074 1076 1076 1076 1075 1075 1076 1077 1079 1078 1079 1078 1077 1076 1076 1078 1081 1084 1084 1083 1083 1083 1083 1083 1083 1083 1084 1085 1085 1086 1086 1084 1083 1083 1082 1083 1084 1085 1085 1085 1085 1085 1085 1085 1086 1086 1086 1086 1087 1088 1088 1086 1086 1087 1089 1089 1090 1091 1092 1090 1088 1086 1085 1086 1089 1092 1095 1096 1097 1099 1100 1099 1099 1097 1096 1096 1097 1097 1097 1096 1096 1095 1094 1093 1091 1090 1088 1086 1086 1085 1084 1083 1084 1086 1087 1087 1080 1074 1071 1079 1080 1083
961 962 963 964 965 964 964 965 966 967 969 969 967 966 967 967 968 968 970 970 970 969 969 970 972 972 973 974 975 976 976 976 976 977 977 977 978 978 978 978 979 979 980 981 982 984 984 984 985 985 985 988 989 990 992 994 995 996 997 998 1000 1000 1001 1002 1003 1003 1003 1004 1004 1005 1006 1008 1009 1011 1013 1014 1015 1016 1016 1016 1016 1018 1018 1019 1019 1019 1019 1020 1021 1021 1022 1022 1023 1023 1023 1023 1023 1023 1024 1024 1025 1025 1026 1026 1028 1029 1030 1031 1031 1032 1032 1033 1033 1034 1034 1035 1035 1034 1033 1033 1034 1037 1038 1040 1039 1039 1039 1038 1038 1038 1038 1038 1038 1037 1038 1039 1041 1042 1044 1045 1045 1046 1046 1046 1045 1044 1045 1043 1043 1043 1042 1041 1041 1041 1040 1040 1040 1040 1040 1041 1041 1041 1040 1041 1041 1041 1041 1041 1040 1039 1038 1038 1037 1035 1034 1033 1032 1031 1029 1028 1028 1027 1025 1024 1021 1021 1021 1021 1020 1019 1017 1016 1016 1016 1015 1015 1017 1018 1020 1022 1021 1019 1022 1027 1031 1032 1032 1033 1033 1035 1037 1039 1041 1044 1047 1050 1053 1056 1060 1063 1067 1070 1073 1073 1073 1076 1078 1082 1085 1088 1090 1089 1089 1089 1089 1090 1091 1092 1094 1095 1096 1097 1097 1096 1098 1099 1099 1098 1100 1101 1102 1104 1106 1107 1109 1111 1112 1111 1109 1108 1106 1106 1107 1108 1109 1109 1110 1111 1111 1112 1112 1112 1112 1111 1113 1116 1116 1115 1112 1111 1110 1109 1107 1104 1101 1098 1095 1090 1085 1080 1073 1069 1066 1064 1063 1062 1060 1058 1056 1055 1055 1055 1054 1054 1054 1055 1055 1055 1055 1055 1054 1055 1057 1057 1058 1059 1061 1063 1064 1064 1066 1067 1067 1066 1065 1065 1065 1066 1067 1068 1069 1070 1071 1073 1073 1073 1073 1073 1073 1074 1074 1074 1074 1074 1074 1072 1073 1075 1077 1079 1080 1080 1080 1080 1081 1081 1081 1082 1083 1083 1084 1084 1084 1084 1083 1083 1083 1084 1085 1084 1086 1085 1085 1085 1085 1085 1085 1086 1085 1086 1086 1086 1086 1086 1085 1085 1087 1088 1089 1090 1091 1090 1088 1086 1085 1085 1088 1090 1093 1095 1096 1097 1099 1097 1097 1096 1095 1095 1095 1094 1094 1094 1093 1093 1093 1093 1091 1089 1087 1086 1084 1083 1081 1080 1081 1084 1085 1084 1079 1074 1068 1071 1073 1076
960 962 962 963 963 962 962 962 964 965 967 968 966 965 966 967 968 969 969 969 969 968 968 970 971 971 972 973 974 974 975 975 975 976 976 976 977 977 977 977 978 978 978 979 981 982 984 984 984 985 985 987 988 989 991 993 994 995 996 997 998 999 1000 1001 1001 1002 1002 1003 1003 1004 1005 1006 1008 1010 1012 1013 1015 1015 1015 1015 1016 1016 1017 1018 1018 1018 1019 1019 1020 1021 1021 1021 1022 1022 1022 1022 1023 1023 1023 1024 1025 1025 1025 1026 1027 1028 1030 1030 1030 1031 1032 1032 1033 1034 1034 1034 1034 1034 1033 1033 1034 1036 1038 1039 1039 1038 1038 1038 1038 1038 1038 1038 1038 1038 1038 1039 1041 1042 1043 1045 1045 1045 1046 1045 1045 1044 1044 1043 1042 1041 1040 1040 1039 1039 1038 1038 1038 1037 1038 1038 1038 1038 1039 1038 1038 1039 1039 1039 1037 1036 1034 1033 1032 1031 1030 1028 1028 1026 1026 1026 1025 1025 1024 1022 1020 1019 1020 1020 1018 1017 1015 1013 1013 1012 1012 1012 1013 1015 1017 1018 1018 1016 1018 1023 1026 1027 1027 1027 1028 1029 1031 1033 1035 1037 1040 1043 1046 1048 1050 1054 1057 1060 1063 1065 1068 1071 1073 1076 1079 1082 1085 1085 1085 1085 1085 1086 1088 1090 1092 1094 1095 1094 1094 1093 1094 1095 1095 1095 1096 1097 1098 1101 1103 1105 1107 1110 1112 1110 1109 1107 1105 1105 1106 1106 1107 1108 1108 1108 1109 1109 1109 1109 1108 1108 1109 1111 1113 1112 1111 1109 1107 1106 1104 1100 1097 1095 1092 1088 1082 1077 1070 1065 1063 1061 1059 1058 1056 1054 1053 1052 1051 1051 1051 1051 1051 1052 1052 1053 1053 1053 1053 1053 1054 1055 1056 1059 1062 1064 1064 1064 1065 1066 1065 1064 1063 1063 1063 1064 1065 1066 1068 1069 1069 1070 1070 1070 1070 1070 1070 1070 1070 1070 1069 1070 1071 1070 1071 1073 1075 1077 1078 1080 1081 1081 1082 1082 1081 1081 1081 1082 1082 1084 1084 1083 1085 1084 1084 1085 1083 1085 1087 1086 1086 1086 1085 1085 1085 1085 1085 1085 1085 1085 1085 1085 1085 1085 1085 1087 1088 1088 1089 1089 1087 1085 1084 1084 1085 1088 1090 1092 1094 1095 1096 1096 1095 1094 1094 1093 1093 1092 1092 1092 1090 1092 1093 1093 1091 1089 1086 1084 1083 1081 1079 1078 1080 1082 1083 1083 1078 1072 1067 1064 1067 1071
959 961 962 961 961 960 961 962 962 962 964 966 966 964 965 967 968 968 968 968 968 968 968 969 970 971 971 972 973 973 974 974 974 975 976 976 977 977 977 977 977 977 977 979 980 981 983 983 984 984 985 986 988 989 991 992 993 994 995 996 997 998 999 1001 1000 1001 1002 1003 1002 1003 1004 1005 1007 1009 1010 1012 1014 1014 1014 1014 1014 1015 1015 1017 1017 1017 1018 1018 1019 1019 1019 1020 1020 1020 1021 1021 1022 1022 1022 1023 1024 1025 1025 1026 1026 1027 1029 1029 1030 1031 1031 1032 1032 1033 1034 1034 1034 1034 1033 1032 1035 1036 1038 1039 1038 1038 1038 1038 1038 1038 1038 1038 1038 1038 1038 1039 1041 1042 1043 1044 1045 1045 1044 1044 1044 1043 1042 1042 1041 1040 1040 1039 1039 1038 1037 1037 1036 1036 1036 1036 1036 1036 1036 1035 1035 1035 1036 1034 1033 1032 1031 1029 1029 1028 1027 1026 1025 1024 1024 1023 1023 1022 1021 1021 1019 1017 1018 1017 1016 1014 1013 1012 1011 1011 1011 1011 1012 1013 1014 1015 1015 1015 1015 1018 1022 1022 1022 1022 1023 1024 1025 1027 1029 1031 1033 1036 1038 1039 1041 1044 1048 1052 1055 1058 1061 1064 1065 1066 1067 1067 1068 1069 1070 1071 1073 1075 1078 1081 1085 1089 1092 1092 1092 1092 1093 1092 1091 1090 1090 1092 1095 1097 1100 1102 1104 1107 1109 1108 1106 1104 1103 1103 1103 1103 1104 1104 1104 1105 1105 1105 1105 1106 1105 1105 1105 1107 1108 1108 1108 1105 1103 1101 1099 1097 1094 1093 1090 1085 1079 1073 1066 1061 1060 1058 1056 1054 1052 1051 1050 1048 1048 1048 1048 1048 1048 1048 1049 1049 1050 1050 1051 1052 1052 1053 1054 1057 1060 1061 1061 1061 1063 1065 1064 1063 1062 1061 1061 1062 1063 1065 1066 1067 1067 1067 1066 1067 1067 1068 1068 1067 1067 1067 1067 1068 1069 1070 1071 1073 1074 1077 1078 1080 1082 1083 1084 1083 1082 1081 1081 1082 1082 1084 1084 1083 1083 1084 1084 1083 1083 1086 1088 1087 1084 1084 1085 1086 1085 1085 1084 1084 1084 1084 1084 1084 1084 1084 1084 1085 1086 1087 1088 1088 1086 1084 1084 1084 1083 1084 1087 1090 1091 1092 1093 1094 1093 1092 1092 1092 1091 1090 1089 1089 1089 1091 1093 1094 1091 1088 1085 1083 1080 1077 1077 1078 1080 1080 1082 1082 1077 1071 1066 1060 1061 1066
957 958 960 960 959 959 963 965 964 962 964 965 965 964 965 967 967 967 967 967 967 968 968 969 969 971 971 972 972 973 974 974 975 975 976 976 977 977 977 977 977 977 977 978 979 982 982 984 984 985 985 986 988 990 991 992 993 993 995 996 997 998 999 1000 1000 1001 1001 1002 1002 1003 1004 1004 1006 1007 1009 1010 1012 1012 1012 1013 1013 1014 1015 1016 1016 1016 1017 1017 1018 1018 1018 1018 1019 1019 1019 1020 1021 1021 1021 1022 1023 1024 1025 1026 1026 1027 1028 1028 1029 1030 1030 1031 1031 1032 1033 1033 1033 1033 1032 1032 1035 1037 1038 1038 1038 1038 1038 1038 1038 1038 1038 1039 1039 1038 1038 1039 1041 1042 1043 1044 1044 1044 1043 1043 1042 1042 1041 1040 1040 1039 1038 1038 1038 1037 1037 1036 1035 1035 1035 1035 1034 1033 1033 1033 1033 1032 1032 1031 1029 1029 1029 1027 1027 1025 1025 1024 1023 1022 1021 1021 1020 1020 1020 1019 1018 1016 1015 1015 1013 1012 1011 1010 1010 1009 1009 1009 1010 1010 1011 1012 1013 1011 1011 1014 1017 1017 1017 1018 1018 1019 1020 1021 1023 1025 1027 1028 1031 1032 1035 1037 1040 1044 1046 1050 1052 1054 1056 1056 1056 1058 1059 1060 1060 1062 1062 1064 1068 1072 1077 1081 1083 1085 1087 1088 1088 1087 1087 1085 1085 1086 1089 1092 1096 1098 1099 1101 1103 1103 1101 1100 1100 1100 1100 1100 1101 1101 1101 1101 1101 1101 1101 1101 1102 1102 1101 1103 1102 1102 1101 1098 1096 1094 1093 1091 1089 1087 1084 1080 1073 1068 1064 1059 1057 1055 1053 1052 1050 1048 1047 1047 1046 1046 1046 1045 1045 1045 1045 1045 1046 1047 1049 1051 1052 1052 1052 1054 1056 1057 1057 1058 1061 1064 1063 1062 1061 1059 1060 1061 1062 1064 1065 1065 1065 1065 1064 1065 1065 1064 1064 1065 1066 1067 1069 1071 1071 1072 1072 1072 1074 1077 1078 1080 1082 1083 1085 1084 1083 1082 1081 1082 1082 1084 1084 1083 1082 1082 1082 1081 1082 1083 1084 1083 1082 1083 1087 1086 1085 1083 1083 1083 1083 1083 1083 1083 1083 1082 1082 1083 1084 1085 1086 1086 1085 1085 1085 1086 1083 1082 1084 1086 1088 1090 1090 1091 1090 1090 1091 1092 1090 1090 1088 1088 1089 1090 1092 1093 1092 1088 1085 1081 1078 1075 1076 1077 1079 1079 1080 1081 1076 1071 1064 1060 1056 1062
954 956 957 958 958 963 967 970 970 967 966 966 966 965 964 966 966 966 966 966 966 967 967 968 969 969 971 970 970 972 973 974 975 975 976 976 976 976 976 976 977 977 977 978 979 981 982 983 985 986 986 987 988 990 991 992 992 993 995 996 996 997 999 999 999 1000 1000 1001 1002 1002 1003 1004 1005 1006 1007 1009 1010 1010 1011 1011 1012 1012 1013 1014 1015 1016 1016 1017 1017 1017 1017 1017 1017 1018 1018 1019 1019 1020 1020 1021 1022 1023 1024 1025 1025 1026 1026 1027 1029 1029 1029 1030 1030 1031 1032 1032 1031 1031 1032 1034 1035 1037 1037 1037 1038 1038 1038 1038 1038 1038 1039 1039 1039 1039 1038 1039 1040 1042 1043 1044 1044 1044 1043 1043 1042 1041 1040 1039 1038 1038 1037 1037 1037 1036 1035 1034 1034 1033 1033 1033 1033 1032 1032 1032 1031 1030 1028 1028 1027 1026 1026 1026 1025 1024 1023 1022 1021 1020 1019 1019 1018 1018 1018 1017 1015 1014 1012 1012 1012 1011 1010 1009 1009 1008 1007 1007 1008 1008 1009 1009 1010 1009 1008 1010 1013 1014 1014 1014 1013 1013 1015 1016 1018 1020 1022 1024 1025 1027 1029 1032 1034 1036 1038 1041 1042 1044 1046 1047 1048 1050 1053 1055 1054 1054 1054 1055 1060 1065 1069 1074 1076 1079 1081 1083 1084 1082 1083 1084 1084 1083 1082 1085 1090 1093 1094 1096 1097 1097 1098 1098 1098 1097 1097 1098 1097 1097 1097 1097 1097 1097 1097 1096 1097 1097 1097 1098 1096 1095 1092 1090 1089 1088 1087 1085 1083 1081 1078 1075 1071 1066 1062 1057 1055 1053 1051 1049 1047 1046 1045 1045 1043 1043 1043 1043 1043 1044 1044 1044 1044 1046 1047 1050 1052 1053 1052 1052 1052 1053 1054 1057 1059 1062 1063 1061 1060 1059 1059 1060 1062 1062 1063 1063 1063 1063 1063 1063 1062 1062 1063 1064 1066 1069 1072 1073 1073 1074 1074 1074 1074 1076 1078 1079 1080 1081 1082 1083 1083 1083 1082 1082 1083 1084 1084 1083 1082 1081 1081 1081 1081 1081 1081 1081 1081 1082 1085 1084 1083 1081 1081 1082 1082 1083 1083 1083 1082 1082 1082 1082 1083 1084 1084 1085 1085 1085 1086 1086 1084 1081 1080 1079 1083 1086 1088 1088 1088 1090 1090 1091 1090 1090 1090 1091 1090 1090 1092 1092 1093 1089 1085 1081 1077 1074 1074 1075 1077 1077 1078 1079 1076 1072 1067 1063 1056 1058
954 957 957 959 958 962 967 969 969 969 969 969 968 967 966 964 964 965 965 965 965 966 966 967 967 968 969 969 969 970 972 973 974 975 976 976 976 976 976 976 976 977 977 978 979 980 981 982 985 986 987 988 989 991 991 992 992 993 994 996 996 997 998 999 999 999 999 1000 1001 1001 1002 1003 1004 1005 1006 1008 1008 1009 1010 1010 1010 1011 1012 1013 1014 1015 1015 1015 1016 1016 1016 1017 1017 1017 1017 1017 1018 1019 1019 1020 1021 1022 1023 1024 1024 1025 1025 1026 1028 1029 1029 1030 1030 1030 1030 1030 1031 1032 1034 1035 1035 1036 1036 1037 1037 1037 1037 1037 1038 1039 1040 1040 1040 1040 1039 1039 1041 1042 1043 1043 1043 1044 1043 1043 1042 1041 1040 1039 1038 1038 1038 1037 1037 1036 1035 1034 1033 1032 1032 1031 1031 1031 1030 1029 1029 1027 1026 1026 1025 1024 1024 1024 1024 1022 1022 1021 1019 1018 1017 1017 1016 1015 1015 1014 1012 1010 1010 1010 1010 1009 1008 1007 1007 1007 1007 1007 1006 1007 1008 1008 1009 1007 1006 1007 1009 1010 1010 1009 1009 1009 1010 1012 1013 1015 1016 1018 1021 1021 1023 1026 1027 1029 1030 1032 1033 1035 1037 1039 1042 1043 1046 1047 1047 1048 1048 1049 1053 1058 1062 1067 1070 1072 1074 1076 1078 1078 1079 1080 1081 1080 1079 1078 1082 1084 1086 1087 1086 1086 1087 1088 1090 1091 1092 1093 1093 1093 1093 1093 1093 1093 1093 1092 1092 1093 1093 1092 1089 1088 1087 1084 1083 1082 1081 1079 1077 1075 1072 1069 1067 1063 1059 1055 1052 1050 1048 1046 1045 1043 1042 1041 1039 1040 1041 1042 1042 1042 1041 1039 1042 1046 1048 1050 1052 1052 1052 1051 1051 1051 1053 1055 1058 1060 1062 1061 1059 1058 1058 1059 1060 1060 1060 1061 1061 1061 1061 1061 1061 1062 1062 1064 1067 1070 1073 1075 1075 1075 1075 1075 1075 1077 1078 1078 1078 1079 1080 1080 1080 1081 1082 1082 1082 1083 1083 1083 1081 1081 1081 1081 1081 1081 1082 1081 1081 1081 1080 1080 1080 1080 1081 1080 1080 1081 1082 1082 1082 1082 1082 1082 1083 1083 1083 1081 1083 1083 1083 1083 1081 1080 1078 1077 1072 1076 1080 1086 1087 1087 1088 1089 1091 1092 1093 1095 1095 1093 1091 1091 1091 1091 1087 1082 1077 1072 1070 1073 1074 1075 1075 1076 1075 1072 1069 1066 1059 1054
954 958 960 962 962 961 965 969 969 969 969 969 968 967 966 965 964 964 964 964 964 965 965 965 965 965 966 966 968 969 970 972 973 974 976 976 976 976 976 976 976 977 977 977 979 980 981 982 984 986 988 988 990 991 991 991 992 993 993 995 996 996 996 998 997 998 998 999 1000 1001 1001 1003 1003 1004 1006 1007 1007 1008 1008 1008 1008 1010 1011 1012 1013 1014 1014 1014 1015 1015 1015 1017 1017 1017 1017 1017 1017 1018 1018 1019 1020 1021 1022 1023 1023 1024 1024 1025 1026 1028 1029 1030 1030 1030 1030 1030 1032 1033 1035 1035 1035 1035 1036 1036 1036 1036 1036 1036 1038 1039 1041 1041 1042 1041 1040 1039 1040 1042 1042 1042 1042 1043 1043 1043 1043 1042 1040 1039 1038 1038 1038 1037 1036 1036 1034 1034 1033 1032 1031 1031 1030 1030 1029 1028 1026 1025 1024 1023 1022 1021 1021 1021 1021 1021 1020 1019 1018 1017 1015 1015 1013 1013 1013 1011 1008 1007 1008 1009 1007 1007 1006 1005 1005 1005 1005 1005 1005 1005 1006 1007 1007 1006 1005 1004 1005 1006 1005 1005 1005 1005 1005 1007 1007 1009 1009 1012 1013 1014 1016 1017 1019 1020 1021 1023 1025 1027 1030 1032 1035 1036 1037 1038 1039 1040 1041 1042 1045 1050 1054 1059 1062 1064 1067 1068 1071 1072 1073 1075 1076 1075 1073 1072 1074 1077 1079 1079 1079 1080 1081 1082 1083 1085 1085 1086 1086 1087 1087 1086 1085 1086 1087 1088 1088 1089 1089 1088 1086 1084 1083 1080 1079 1077 1075 1074 1071 1070 1067 1064 1061 1058 1056 1053 1050 1048 1046 1043 1042 1041 1040 1037 1036 1037 1037 1039 1039 1039 1038 1035 1041 1046 1049 1050 1050 1051 1050 1051 1052 1052 1051 1053 1056 1059 1060 1060 1058 1058 1057 1058 1058 1058 1058 1059 1060 1060 1061 1061 1062 1062 1062 1064 1066 1069 1073 1075 1076 1076 1076 1076 1076 1077 1077 1078 1078 1078 1079 1080 1080 1081 1082 1082 1082 1082 1083 1082 1082 1081 1081 1081 1081 1082 1082 1081 1081 1080 1079 1079 1080 1080 1081 1080 1080 1080 1081 1081 1081 1081 1082 1083 1083 1082 1082 1080 1081 1080 1079 1080 1079 1077 1076 1077 1069 1069 1074 1082 1084 1085 1086 1087 1088 1090 1091 1092 1092 1090 1089 1088 1088 1089 1085 1081 1076 1069 1066 1071 1072 1073 1073 1072 1071 1069 1066 1065 1060 1051
954 958 963 965 965 964 964 969 969 969 969 969 968 967 966 965 965 964 964 964 964 964 965 965 964 965 965 965 966 968 969 972 973 974 975 975 975 976 976 976 976 977 977 977 978 979 980 982 983 985 987 987 988 989 990 990 991 991 993 994 996 996 995 996 996 997 997 999 999 1000 1001 1002 1003 1003 1005 1005 1006 1007 1007 1007 1008 1009 1010 1012 1012 1012 1012 1013 1013 1013 1015 1016 1016 1017 1017 1017 1016 1017 1017 1018 1019 1020 1021 1023 1023 1023 1023 1023 1025 1027 1029 1030 1030 1030 1030 1031 1033 1034 1034 1034 1034 1035 1035 1035 1035 1035 1035 1037 1037 1038 1040 1042 1043 1042 1040 1039 1040 1040 1040 1040 1041 1041 1042 1043 1043 1042 1040 1039 1038 1038 1037 1037 1036 1035 1034 1033 1032 1032 1031 1031 1029 1029 1028 1026 1024 1023 1021 1020 1020 1019 1019 1019 1019 1018 1016 1016 1016 1015 1014 1013 1012 1011 1010 1009 1006 1005 1005 1007 1006 1004 1003 1003 1002 1001 1001 1001 1003 1003 1004 1005 1005 1005 1003 1002 1001 1002 1001 1001 1000 999 999 1000 1001 1002 1003 1005 1006 1008 1010 1011 1013 1014 1015 1017 1019 1022 1024 1024 1025 1026 1028 1031 1032 1033 1033 1033 1037 1042 1046 1051 1054 1057 1059 1061 1064 1065 1066 1067 1069 1068 1066 1068 1069 1072 1073 1073 1074 1075 1075 1076 1076 1077 1078 1079 1079 1079 1080 1079 1080 1081 1082 1083 1083 1084 1085 1084 1083 1081 1079 1077 1075 1074 1072 1071 1068 1066 1063 1059 1058 1056 1054 1052 1049 1046 1043 1041 1038 1038 1035 1032 1033 1034 1034 1036 1036 1036 1034 1034 1042 1047 1049 1049 1049 1050 1050 1052 1054 1054 1054 1053 1053 1056 1058 1056 1056 1055 1056 1057 1057 1057 1058 1059 1060 1061 1061 1062 1062 1063 1063 1063 1066 1069 1072 1074 1075 1075 1076 1076 1076 1077 1077 1077 1078 1078 1079 1080 1080 1081 1082 1082 1082 1082 1082 1081 1081 1081 1081 1082 1081 1081 1081 1082 1081 1080 1080 1080 1080 1081 1081 1081 1081 1081 1081 1081 1080 1080 1083 1084 1083 1081 1082 1081 1081 1080 1078 1078 1078 1074 1074 1075 1069 1065 1069 1078 1081 1081 1082 1083 1086 1087 1089 1089 1089 1088 1088 1086 1086 1083 1079 1076 1073 1067 1064 1067 1069 1069 1068 1068 1068 1066 1064 1063 1060 1050
955 957 961 965 966 966 965 968 968 968 968 968 968 967 966 966 965 965 964 964 964 964 964 964 964 964 965 965 965 967 969 971 972 973 974 974 974 974 975 976 976 976 977 977 977 979 979 981 982 982 982 983 983 985 986 987 989 990 992 993 995 995 995 996 996 996 997 998 998 1000 1000 1001 1002 1003 1004 1004 1006 1007 1006 1006 1006 1007 1009 1011 1011 1011 1011 1012 1012 1013 1015 1016 1016 1016 1016 1016 1016 1016 1016 1016 1018 1019 1020 1022 1022 1022 1022 1022 1023 1025 1028 1029 1028 1030 1029 1031 1033 1034 1034 1034 1034 1034 1035 1035 1034 1034 1035 1036 1037 1038 1040 1041 1042 1042 1040 1039 1039 1039 1040 1040 1040 1041 1041 1042 1042 1042 1040 1039 1039 1037 1037 1036 1036 1035 1034 1032 1032 1031 1030 1030 1029 1027 1026 1024 1022 1021 1019 1018 1018 1017 1017 1016 1016 1014 1013 1013 1014 1013 1013 1011 1011 1010 1009 1008 1006 1004 1004 1005 1004 1003 1002 1000 999 996 996 997 1000 1000 1000 1000 1002 1001 1000 999 999 1000 999 997 995 994 994 994 996 996 998 998 999 1002 1004 1006 1007 1008 1009 1012 1014 1015 1015 1015 1015 1017 1020 1023 1025 1025 1025 1026 1028 1032 1037 1041 1044 1047 1049 1053 1056 1058 1059 1060 1061 1061 1062 1064 1065 1067 1068 1068 1069 1068 1067 1067 1068 1070 1071 1072 1072 1072 1073 1073 1074 1075 1077 1078 1078 1079 1080 1080 1079 1077 1075 1073 1072 1071 1070 1068 1066 1063 1060 1056 1054 1052 1050 1048 1047 1044 1041 1038 1035 1033 1025 1027 1032 1032 1032 1033 1033 1033 1033 1036 1041 1046 1048 1048 1049 1048 1050 1051 1053 1054 1055 1053 1051 1053 1055 1054 1054 1055 1056 1056 1056 1056 1058 1059 1060 1060 1062 1062 1063 1063 1063 1063 1065 1068 1071 1073 1075 1075 1075 1076 1076 1077 1077 1077 1078 1078 1079 1079 1080 1081 1081 1082 1082 1082 1082 1081 1081 1081 1081 1081 1081 1081 1081 1081 1081 1080 1081 1081 1081 1081 1081 1082 1081 1082 1082 1082 1081 1080 1080 1082 1081 1081 1083 1084 1083 1081 1081 1080 1078 1074 1073 1072 1069 1065 1064 1072 1075 1075 1076 1079 1083 1084 1085 1085 1084 1084 1083 1083 1083 1080 1076 1074 1071 1064 1059 1061 1064 1064 1065 1065 1066 1064 1063 1062 1060 1052
957 956 960 964 965 966 967 968 968 968 968 968 968 967 967 966 965 965 964 964 964 964 964 964 964 964 965 966 966 967 969 971 972 972 973 973 973 974 975 976 976 976 976 977 977 978 979 980 980 981 981 981 982 984 986 987 989 990 991 993 994 994 995 995 995 995 996 997 997 998 999 1000 1001 1002 1003 1004 1005 1005 1006 1006 1005 1006 1008 1009 1010 1010 1011 1012 1012 1013 1014 1015 1016 1016 1016 1016 1016 1016 1016 1015 1016 1017 1019 1021 1021 1021 1021 1021 1022 1024 1026 1027 1027 1028 1028 1030 1032 1033 1033 1033 1034 1034 1034 1034 1034 1034 1035 1036 1036 1038 1039 1040 1042 1041 1040 1039 1039 1039 1039 1039 1039 1040 1040 1042 1042 1041 1041 1039 1039 1038 1037 1037 1036 1035 1034 1033 1031 1030 1030 1029 1028 1028 1026 1024 1022 1019 1018 1017 1016 1016 1014 1014 1013 1012 1011 1011 1011 1012 1012 1011 1010 1010 1008 1008 1006 1004 1002 1003 1004 1001 999 997 995 994 994 994 995 995 996 996 995 997 996 996 997 998 997 996 995 994 994 994 994 994 994 993 994 996 999 1000 1001 1002 1003 1007 1008 1007 1006 1006 1008 1011 1013 1016 1016 1017 1018 1020 1021 1025 1030 1032 1036 1039 1043 1047 1050 1052 1053 1053 1053 1053 1056 1057 1059 1061 1060 1060 1058 1056 1057 1059 1061 1062 1064 1065 1065 1065 1066 1067 1068 1070 1071 1072 1073 1074 1075 1076 1075 1073 1071 1070 1069 1068 1067 1065 1062 1059 1055 1052 1049 1047 1046 1044 1042 1040 1037 1034 1031 1028 1023 1025 1029 1030 1030 1030 1031 1031 1034 1036 1039 1045 1047 1047 1048 1047 1048 1049 1051 1053 1054 1053 1051 1051 1052 1053 1053 1055 1056 1056 1056 1057 1057 1059 1060 1060 1062 1063 1063 1063 1064 1064 1065 1068 1071 1073 1074 1075 1076 1076 1077 1077 1078 1078 1078 1078 1079 1079 1080 1081 1082 1082 1083 1083 1084 1083 1081 1081 1082 1082 1082 1082 1082 1082 1082 1082 1082 1082 1082 1081 1081 1082 1082 1082 1082 1081 1081 1080 1080 1080 1080 1081 1082 1086 1085 1083 1082 1082 1079 1077 1075 1074 1068 1064 1060 1061 1063 1065 1069 1075 1080 1081 1080 1079 1078 1078 1078 1080 1080 1077 1074 1072 1069 1063 1056 1058 1061 1061 1062 1062 1063 1062 1061 1059 1058 1052
954 957 960 963 965 965 966 967 967 967 967 967 968 967 967 966 965 965 964 964 964 965 965 965 965 965 965 967 968 968 969 970 972 972 971 972 973 974 975 976 976 976 976 976 977 977 978 979 979 980 980 981 982 984 985 987 989 990 991 992 993 993 994 994 994 995 995 996 997 997 998 999 1000 1001 1001 1003 1004 1004 1005 1005 1005 1005 1007 1008 1009 1010 1011 1011 1012 1013 1014 1015 1016 1015 1016 1016 1016 1016 1015 1015 1016 1016 1018 1019 1020 1020 1021 1021 1021 1023 1024 1025 1026 1026 1027 1029 1031 1032 1032 1032 1033 1033 1033 1033 1033 1034 1034 1035 1036 1037 1038 1039 1041 1041 1040 1039 1039 1039 1039 1038 1038 1039 1040 1041 1041 1041 1040 1039 1039 1038 1038 1037 1036 1036 1035 1033 1032 1031 1030 1029 1028 1028 1026 1024 1021 1019 1017 1016 1015 1015 1014 1012 1011 1011 1009 1009 1010 1010 1011 1011 1009 1009 1008 1007 1005 1004 1002 1001 1001 999 997 995 994 994 994 994 994 994 994 994 994 995 995 995 995 995 994 994 994 994 994 994 994 994 994 994 994 994 994 995 995 997 998 1000 1000 999 1000 1001 1003 1005 1006 1008 1009 1011 1012 1015 1017 1020 1024 1026 1030 1033 1036 1041 1043 1043 1043 1044 1045 1046 1048 1050 1052 1054 1054 1053 1051 1051 1051 1052 1055 1055 1056 1056 1057 1059 1060 1062 1063 1064 1065 1066 1068 1069 1070 1071 1070 1069 1067 1066 1065 1064 1062 1060 1057 1054 1050 1048 1046 1044 1042 1040 1038 1035 1034 1032 1030 1027 1023 1022 1024 1025 1027 1029 1030 1030 1033 1037 1040 1044 1046 1046 1046 1045 1045 1048 1049 1051 1052 1052 1051 1051 1050 1052 1053 1053 1055 1055 1056 1057 1057 1059 1060 1060 1062 1063 1063 1063 1064 1065 1066 1069 1071 1072 1073 1074 1075 1075 1076 1078 1078 1079 1079 1079 1079 1079 1081 1081 1082 1083 1083 1084 1086 1085 1084 1084 1084 1085 1086 1086 1086 1085 1085 1085 1083 1084 1083 1082 1081 1082 1082 1082 1082 1081 1080 1080 1080 1080 1080 1081 1084 1087 1088 1086 1084 1083 1081 1079 1076 1073 1069 1063 1059 1056 1056 1060 1065 1072 1076 1075 1075 1073 1073 1074 1075 1076 1077 1074 1072 1070 1068 1062 1055 1057 1061 1060 1060 1060 1061 1060 1058 1057 1055 1052
954 958 961 963 964 965 965 966 966 966 966 966 968 968 967 966 965 964 964 964 965 965 966 967 967 967 967 967 969 969 969 970 971 971 971 971 973 975 975 975 976 976 976 976 976 977 977 978 979 980 980 981 982 984 985 987 989 990 991 992 992 993 993 993 993 994 994 995 996 996 997 998 998 999 1000 1002 1002 1003 1004 1004 1004 1005 1006 1007 1009 1010 1011 1011 1012 1012 1013 1015 1015 1015 1016 1016 1016 1016 1015 1015 1015 1017 1017 1019 1019 1020 1020 1021 1021 1022 1023 1024 1026 1026 1026 1028 1029 1031 1031 1032 1032 1032 1032 1032 1032 1033 1033 1034 1036 1037 1038 1039 1040 1041 1040 1039 1039 1039 1038 1038 1038 1039 1039 1040 1041 1041 1040 1040 1039 1039 1038 1037 1037 1036 1035 1034 1033 1032 1031 1030 1029 1028 1027 1025 1022 1021 1018 1016 1015 1014 1014 1013 1011 1010 1009 1008 1009 1009 1010 1009 1009 1008 1007 1006 1004 1003 1001 999 998 997 995 994 994 994 994 994 994 994 994 994 994 994 994 994 994 994 994 994 994 994 994 994 994 994 994 994 994 994 994 994 994 994 994 994 994 994 995 996 997 999 1001 1002 1004 1006 1007 1010 1012 1015 1018 1021 1024 1027 1030 1032 1034 1033 1033 1035 1036 1038 1040 1042 1044 1046 1046 1046 1045 1045 1044 1046 1048 1047 1049 1051 1053 1054 1056 1058 1059 1060 1060 1060 1061 1062 1063 1064 1063 1063 1062 1062 1061 1059 1056 1055 1052 1049 1046 1044 1042 1040 1037 1035 1034 1032 1031 1030 1028 1026 1021 1019 1022 1023 1027 1028 1029 1030 1033 1037 1040 1044 1045 1045 1044 1043 1044 1045 1046 1049 1050 1050 1049 1049 1048 1050 1051 1052 1053 1054 1056 1056 1057 1059 1060 1061 1062 1063 1064 1064 1065 1066 1068 1069 1071 1072 1072 1074 1074 1074 1076 1078 1080 1080 1079 1080 1080 1080 1081 1082 1083 1084 1085 1086 1087 1088 1089 1089 1089 1089 1089 1089 1089 1088 1088 1087 1086 1085 1085 1084 1083 1082 1081 1081 1081 1080 1080 1080 1080 1081 1080 1083 1086 1089 1090 1088 1086 1084 1082 1078 1074 1071 1067 1062 1059 1055 1052 1053 1060 1065 1070 1070 1068 1069 1071 1071 1072 1073 1074 1072 1070 1069 1067 1062 1055 1056 1060 1061 1060 1059 1059 1058 1056 1055 1053 1050
957 960 962 964 964 964 965 964 965 965 966 966 968 968 967 966 965 964 964 965 965 966 967 968 968 968 969 969 969 970 970 970 971 971 972 973 973 974 975 975 975 976 976 975 975 976 977 978 979 979 980 981 982 984 985 987 989 990 991 991 991 993 992 992 992 993 993 994 994 995 996 997 998 999 999 1001 1001 1003 1003 1003 1003 1004 1005 1006 1008 1009 1010 1010 1012 1012 1013 1014 1014 1015 1015 1015 1016 1016 1016 1015 1015 1017 1018 1019 1019 1020 1020 1021 1022 1022 1023 1025 1025 1025 1026 1028 1029 1030 1030 1030 1031 1031 1031 1032 1032 1032 1033 1034 1035 1036 1037 1039 1040 1041 1039 1039 1038 1038 1038 1038 1038 1038 1039 1040 1041 1041 1040 1040 1039 1039 1038 1038 1037 1037 1036 1035 1034 1032 1031 1031 1029 1029 1028 1026 1024 1022 1019 1017 1016 1014 1013 1012 1011 1010 1009 1007 1008 1008 1008 1007 1007 1006 1005 1005 1003 1002 999 997 997 995 994 994 994 994 994 994 994 994 994 994 994 994 994 994 994 994 994 994 994 994 994 994 994 994 994 994 994 994 994 994 994 994 994 994 994 994 994 994 994 994 995 997 998 1000 1002 1005 1007 1010 1012 1015 1018 1020 1024 1023 1023 1023 1025 1027 1028 1030 1032 1034 1036 1038 1039 1039 1039 1039 1039 1039 1041 1042 1044 1046 1048 1050 1051 1052 1053 1053 1054 1054 1055 1056 1057 1058 1058 1058 1058 1058 1059 1056 1053 1050 1047 1045 1042 1040 1038 1035 1033 1031 1030 1030 1028 1027 1025 1022 1019 1018 1022 1025 1027 1028 1029 1030 1032 1035 1038 1041 1042 1042 1041 1042 1042 1043 1045 1046 1047 1047 1047 1046 1046 1048 1049 1050 1050 1053 1054 1055 1057 1059 1060 1061 1062 1063 1064 1065 1066 1067 1068 1069 1070 1071 1072 1073 1073 1074 1075 1076 1080 1079 1080 1081 1080 1080 1081 1082 1083 1084 1086 1086 1087 1088 1089 1089 1090 1091 1091 1091 1091 1092 1091 1089 1089 1088 1087 1086 1086 1086 1084 1082 1081 1080 1081 1081 1082 1082 1083 1085 1088 1091 1091 1089 1087 1085 1082 1077 1072 1069 1065 1061 1059 1056 1053 1048 1053 1058 1063 1064 1064 1067 1069 1070 1071 1071 1071 1069 1068 1067 1066 1061 1053 1053 1059 1060 1060 1059 1059 1058 1055 1054 1051 1048
959 961 963 964 964 964 964 964 964 965 966 966 967 968 967 966 965 964 964 965 966 967 967 968 969 969 969 969 969 970 970 970 971 971 971 971 972 973 973 974 974 974 974 974 974 975 976 977 978 979 980 981 982 983 985 986 988 990 990 991 991 992 992 992 992 992 992 993 994 994 996 996 998 999 999 1000 1001 1002 1003 1003 1003 1003 1004 1005 1007 1008 1009 1010 1011 1011 1013 1013 1014 1014 1014 1015 1015 1015 1015 1015 1015 1016 1018 1019 1019 1019 1021 1021 1022 1023 1024 1025 1025 1025 1026 1027 1029 1029 1029 1029 1030 1030 1031 1032 1031 1032 1032 1034 1035 1035 1037 1038 1039 1040 1039 1038 1038 1037 1037 1037 1037 1038 1039 1039 1040 1041 1040 1040 1039 1039 1039 1038 1038 1038 1037 1036 1035 1033 1032 1031 1031 1030 1029 1028 1025 1023 1020 1018 1017 1015 1013 1012 1011 1009 1008 1006 1007 1007 1006 1006 1005 1004 1004 1003 1002 1000 998 995 994 994 994 994 994 994 994 994 994 994 994 994 994 994 994 994 994 994 994 994 994 994 994 994 994 994 994 994 994 994 994 994 994 994 994 994 994 994 994 994 994 994 994 994 995 995 997 1000 1002 1005 1007 1010 1012 1014 1014 1014 1015 1015 1016 1019 1022 1024 1026 1029 1030 1033 1035 1034 1034 1033 1033 1034 1035 1037 1038 1040 1042 1043 1045 1046 1046 1047 1048 1050 1051 1051 1052 1052 1053 1054 1054 1055 1055 1052 1049 1046 1043 1040 1037 1035 1032 1030 1029 1028 1027 1027 1025 1022 1018 1015 1017 1020 1023 1025 1027 1028 1029 1029 1031 1033 1035 1038 1040 1039 1039 1040 1041 1042 1042 1044 1044 1044 1044 1044 1045 1047 1048 1049 1049 1051 1054 1055 1057 1059 1060 1061 1062 1063 1063 1064 1065 1065 1067 1068 1069 1070 1071 1072 1072 1073 1074 1075 1077 1078 1080 1081 1081 1080 1081 1082 1082 1084 1086 1087 1088 1088 1090 1091 1092 1093 1094 1094 1094 1093 1093 1091 1090 1089 1089 1089 1089 1090 1088 1086 1084 1082 1082 1083 1083 1084 1085 1087 1088 1089 1090 1088 1086 1085 1083 1078 1073 1068 1064 1061 1059 1057 1054 1047 1046 1052 1057 1059 1061 1064 1067 1068 1068 1067 1067 1067 1065 1065 1063 1059 1052 1048 1052 1054 1055 1056 1057 1056 1054 1050 1046 1042
961 962 963 963 964 964 964 964 964 964 965 966 967 968 967 967 965 964 964 966 966 967 968 968 969 969 969 969 969 969 970 970 970 970 970 969 971 971 972 973 973 973 972 972 974 975 976 977 978 978 980 981 981 983 985 986 987 990 990 990 991 991 991 991 991 991 992 993 993 994 995 996 998 999 999 1000 1001 1001 1002 1003 1003 1002 1003 1005 1007 1008 1008 1010 1010 1011 1012 1012 1013 1014 1014 1014 1015 1015 1015 1015 1015 1016 1017 1018 1018 1019 1021 1022 1022 1024 1025 1025 1025 1025 1025 1026 1027 1028 1028 1028 1029 1030 1030 1031 1031 1031 1032 1033 1034 1034 1036 1037 1039 1040 1040 1038 1037 1037 1037 1037 1037 1037 1038 1039 1040 1040 1040 1040 1039 1039 1039 1039 1039 1039 1038 1037 1035 1034 1033 1033 1032 1031 1030 1029 1026 1024 1022 1019 1018 1016 1014 1011 1010 1009 1008 1006 1007 1005 1005 1004 1004 1004 1003 1003 1002 999 996 994 994 994 994 994 994 994 994 994 994 994 994 994 994 994 994 994 994 994 994 994 994 994 994 994 994 994 994 994 994 994 994 994 994 994 994 994 994 994 994 994 994 994 994 994 994 994 994 995 998 1000 1003 1005 1008 1009 1010 1010 1011 1012 1013 1015 1018 1019 1022 1024 1027 1029 1032 1031 1030 1030 1028 1029 1029 1030 1032 1033 1034 1036 1038 1039 1041 1042 1043 1045 1047 1047 1047 1047 1047 1048 1049 1050 1050 1048 1044 1041 1037 1034 1031 1028 1027 1025 1025 1024 1022 1019 1014 1011 1013 1016 1019 1022 1024 1025 1026 1027 1028 1029 1029 1032 1033 1034 1036 1037 1037 1038 1039 1039 1040 1041 1041 1041 1042 1043 1044 1046 1047 1047 1047 1049 1051 1054 1056 1057 1060 1060 1061 1061 1062 1062 1063 1064 1065 1066 1067 1068 1069 1070 1071 1072 1073 1073 1074 1075 1076 1079 1081 1081 1081 1081 1082 1084 1086 1087 1088 1089 1090 1091 1093 1094 1096 1096 1096 1095 1094 1093 1091 1089 1089 1089 1089 1090 1088 1087 1085 1083 1083 1084 1084 1085 1085 1086 1087 1087 1088 1087 1085 1084 1082 1078 1073 1068 1064 1061 1059 1057 1055 1049 1042 1045 1051 1055 1057 1060 1062 1064 1063 1063 1063 1063 1062 1061 1060 1057 1051 1046 1045 1047 1048 1051 1053 1053 1050 1046 1042 1037
961 961 962 963 963 963 963 963 963 964 965 965 966 968 968 967 965 965 964 966 966 967 969 969 969 969 969 969 969 969 970 970 970 970 969 968 969 970 970 971 972 972 971 972 974 975 976 977 978 978 980 980 981 982 984 985 988 989 989 990 990 990 990 991 991 991 992 992 993 994 995 996 998 998 999 1000 1001 1001 1002 1002 1002 1002 1003 1004 1006 1008 1008 1009 1010 1011 1011 1012 1012 1013 1013 1014 1014 1014 1014 1015 1015 1016 1016 1017 1018 1018 1020 1022 1023 1024 1024 1025 1025 1025 1025 1026 1026 1026 1027 1027 1028 1029 1030 1030 1030 1031 1032 1033 1033 1034 1035 1037 1039 1040 1040 1038 1037 1037 1037 1037 1037 1037 1038 1039 1039 1040 1040 1040 1040 1040 1040 1039 1039 1039 1039 1038 1036 1035 1034 1033 1032 1032 1031 1029 1027 1025 1023 1020 1019 1017 1014 1012 1010 1009 1008 1006 1006 1005 1005 1004 1004 1003 1003 1003 1002 998 995 994 994 994 994 994 994 994 994 994 994 994 994 994 994 994 994 994 994 994 994 994 994 994 994 994 994 994 994 994 994 994 994 994 994 994 994 994 994 994 994 994 994 994 994 994 994 994 994 994 995 996 999 1000 1003 1005 1006 1006 1007 1009 1010 1011 1013 1014 1016 1019 1022 1024 1027 1027 1027 1026 1024 1025 1025 1026 1026 1027 1029 1030 1032 1035 1036 1038 1039 1041 1042 1041 1041 1042 1042 1043 1043 1043 1045 1042 1038 1034 1030 1028 1026 1024 1022 1021 1019 1017 1014 1009 1009 1011 1015 1018 1022 1022 1023 1023 1025 1026 1027 1028 1030 1031 1031 1033 1034 1034 1035 1036 1036 1036 1037 1038 1039 1039 1041 1042 1043 1045 1046 1046 1047 1048 1049 1051 1053 1055 1057 1058 1058 1059 1060 1060 1061 1062 1063 1065 1066 1066 1067 1069 1069 1070 1071 1072 1073 1073 1075 1078 1079 1080 1081 1081 1081 1084 1086 1086 1087 1088 1088 1090 1091 1094 1096 1096 1096 1096 1095 1093 1092 1090 1089 1089 1088 1088 1087 1086 1084 1083 1082 1083 1084 1085 1086 1086 1086 1086 1087 1086 1084 1082 1081 1076 1072 1068 1063 1060 1059 1057 1057 1051 1042 1038 1045 1049 1051 1054 1056 1057 1057 1058 1059 1059 1058 1058 1057 1055 1050 1045 1040 1039 1041 1045 1049 1051 1046 1041 1037 1035
960 960 962 962 963 963 963 963 963 963 964 965 966 967 967 966 966 965 964 965 966 967 968 969 969 969 969 969 969 969 970 970 969 969 968 967 967 968 969 969 970 971 971 972 974 975 975 977 978 978 979 980 981 982 983 985 987 988 989 989 989 989 990 990 990 990 991 992 992 994 994 995 997 998 999 1000 1000 1001 1001 1001 1001 1002 1003 1004 1005 1007 1008 1008 1010 1010 1011 1011 1012 1012 1013 1014 1014 1014 1014 1015 1016 1016 1016 1017 1017 1017 1019 1021 1023 1024 1024 1024 1024 1024 1024 1025 1025 1025 1026 1026 1027 1028 1029 1029 1029 1031 1031 1032 1032 1033 1034 1035 1037 1039 1039 1038 1037 1036 1036 1036 1037 1037 1038 1038 1039 1040 1040 1040 1040 1040 1040 1040 1039 1039 1039 1038 1037 1035 1034 1033 1033 1032 1031 1030 1028 1026 1023 1022 1019 1017 1014 1012 1010 1009 1008 1006 1005 1005 1004 1004 1004 1003 1003 1002 1001 999 995 994 994 994 994 994 994 994 994 994 994 994 994 994 994 994 994 994 994 994 994 994 994 994 994 994 994 994 994 994 994 994 994 994 994 994 994 994 994 994 994 994 994 994 994 994 994 994 994 994 994 994 995 996 998 1000 1001 1002 1003 1004 1007 1007 1009 1009 1011 1014 1016 1019 1022 1022 1022 1022 1020 1020 1021 1021 1021 1022 1023 1026 1028 1030 1032 1033 1034 1035 1036 1036 1036 1037 1039 1038 1038 1038 1038 1036 1032 1028 1024 1023 1021 1020 1017 1014 1009 1007 1004 1008 1013 1016 1018 1020 1022 1022 1022 1022 1024 1025 1026 1027 1028 1029 1030 1030 1032 1032 1032 1033 1032 1034 1034 1035 1037 1038 1039 1040 1042 1043 1044 1045 1047 1047 1048 1048 1050 1052 1054 1055 1056 1057 1057 1058 1059 1060 1061 1062 1063 1064 1065 1067 1067 1068 1068 1070 1071 1072 1074 1075 1077 1078 1079 1079 1080 1082 1083 1084 1086 1086 1086 1088 1089 1092 1095 1098 1097 1097 1094 1093 1092 1089 1089 1087 1087 1085 1085 1084 1083 1081 1080 1081 1082 1083 1085 1085 1085 1085 1085 1084 1083 1081 1080 1076 1072 1068 1063 1060 1060 1059 1058 1053 1043 1033 1038 1044 1045 1047 1050 1050 1051 1052 1055 1055 1055 1055 1053 1052 1047 1042 1037 1034 1037 1041 1044 1046 1040 1036 1034 1034
958 959 960 961 962 963 963 963 962 963 963 965 965 966 966 966 965 964 964 965 966 967 968 969 969 969 969 969 969 969 969 969 969 968 967 966 966 967 968 968 969 969 971 972 974 974 975 976 977 978 979 980 981 981 983 985 986 987 989 989 988 989 989 989 990 990 990 991 992 993 994 995 997 998 999 999 999 1000 1001 1001 1001 1001 1002 1003 1004 1006 1007 1008 1009 1009 1010 1011 1011 1011 1012 1013 1013 1013 1014 1015 1015 1016 1016 1016 1017 1017 1018 1020 1022 1023 1024 1023 1023 1023 1024 1024 1024 1025 1025 1026 1026 1027 1028 1028 1029 1030 1031 1031 1032 1033 1033 1035 1036 1038 1039 1037 1036 1035 1036 1036 1036 1037 1038 1038 1039 1039 1039 1040 1040 1040 1040 1040 1040 1039 1039 1038 1036 1035 1034 1034 1033 1032 1032 1031 1029 1027 1025 1023 1020 1017 1016 1012 1010 1009 1008 1006 1005 1005 1004 1004 1003 1003 1002 1001 1001 999 995 994 994 994 994 994 994 994 994 994 994 994 994 994 994 994 994 994 994 994 994 994 994 994 994 994 994 994 994 994 994 994 994 994 994 994 994 994 994 994 994 994 994 994 994 994 994 994 994 994 994 994 994 994 994 995 996 997 998 1000 1003 1004 1004 1004 1005 1008 1011 1013 1017 1017 1017 1017 1015 1015 1016 1016 1016 1016 1018 1020 1022 1023 1024 1025 1026 1027 1030 1031 1032 1033 1035 1034 1033 1032 1032 1031 1026 1022 1021 1019 1017 1013 1009 1005 1002 1000 999 1012 1020 1019 1019 1020 1021 1021 1021 1022 1022 1023 1024 1025 1026 1026 1028 1028 1029 1029 1030 1030 1031 1032 1033 1034 1035 1035 1037 1039 1040 1041 1042 1044 1045 1045 1046 1046 1046 1049 1051 1052 1053 1054 1055 1056 1056 1057 1057 1059 1060 1061 1063 1064 1065 1065 1066 1067 1069 1070 1072 1073 1074 1075 1076 1075 1078 1081 1082 1083 1083 1084 1085 1085 1087 1091 1094 1095 1096 1095 1093 1092 1090 1087 1088 1087 1085 1084 1084 1082 1081 1080 1078 1078 1079 1080 1080 1082 1083 1083 1084 1082 1081 1080 1078 1075 1070 1066 1062 1059 1058 1057 1056 1051 1041 1032 1031 1039 1041 1042 1043 1045 1046 1048 1049 1050 1050 1049 1049 1047 1042 1036 1033 1032 1035 1036 1037 1038 1034 1033 1033 1034
957 958 959 960 962 963 963 962 962 962 963 964 965 965 965 965 965 964 963 964 965 967 968 968 968 968 968 968 968 968 968 968 968 967 966 966 966 967 968 968 968 969 970 971 973 973 974 975 976 977 978 979 980 981 982 984 985 986 988 988 988 989 989 989 990 990 990 991 992 993 993 995 996 998 999 999 999 1000 1000 1000 1001 1001 1002 1003 1004 1006 1006 1007 1008 1009 1009 1010 1010 1011 1011 1011 1012 1012 1014 1014 1015 1016 1016 1016 1016 1017 1017 1019 1021 1022 1023 1023 1023 1023 1024 1024 1024 1024 1025 1025 1026 1027 1027 1028 1028 1029 1031 1032 1032 1033 1033 1034 1035 1036 1038 1037 1036 1035 1035 1036 1036 1037 1038 1038 1038 1038 1039 1040 1040 1041 1040 1040 1040 1039 1039 1038 1037 1035 1035 1034 1033 1033 1033 1031 1030 1028 1026 1024 1021 1019 1016 1013 1011 1010 1008 1006 1005 1005 1004 1004 1004 1003 1003 1002 1002 1000 996 994 994 994 994 994 994 994 994 994 994 994 994 994 994 994 994 994 994 994 994 994 994 994 994 994 994 994 994 994 994 994 994 994 994 994 994 994 994 994 994 994 994 994 994 994 994 994 994 994 994 994 994 994 994 994 994 994 994 996 998 1000 999 1000 1000 1002 1005 1007 1010 1010 1010 1010 1010 1010 1011 1011 1011 1012 1013 1015 1015 1016 1017 1018 1019 1022 1023 1025 1027 1027 1028 1026 1026 1026 1026 1025 1021 1019 1017 1014 1010 1004 1000 1002 1008 1005 1003 1007 1018 1018 1018 1019 1020 1020 1020 1021 1020 1021 1022 1022 1024 1024 1025 1026 1027 1027 1028 1029 1029 1030 1032 1033 1033 1034 1035 1037 1038 1040 1041 1042 1043 1043 1044 1044 1044 1046 1047 1049 1050 1051 1052 1054 1054 1054 1054 1055 1057 1058 1059 1060 1062 1062 1063 1064 1066 1067 1069 1070 1070 1071 1072 1073 1076 1078 1079 1080 1080 1081 1082 1082 1084 1086 1090 1090 1092 1093 1093 1091 1087 1085 1088 1087 1086 1083 1082 1081 1079 1078 1076 1075 1075 1075 1076 1077 1079 1080 1082 1080 1079 1077 1075 1072 1067 1063 1060 1058 1056 1054 1053 1049 1040 1032 1027 1034 1036 1037 1037 1038 1039 1041 1042 1043 1043 1042 1042 1041 1038 1033 1029 1026 1026 1029 1030 1031 1032 1032 1032 1032
955 957 958 959 961 962 962 962 962 962 963 963 964 964 965 965 964 964 963 963 965 966 967 968 968 968 967 967 967 967 967 967 967 966 966 966 966 966 967 967 968 969 969 970 971 972 972 974 975 976 978 978 979 980 981 982 984 986 987 987 988 988 988 989 989 989 990 991 991 992 993 994 995 997 999 999 999 1000 999 1000 1000 1001 1002 1003 1004 1005 1005 1007 1007 1008 1009 1009 1010 1010 1010 1009 1010 1011 1012 1013 1015 1015 1015 1016 1016 1016 1017 1018 1020 1021 1022 1022 1022 1023 1023 1023 1024 1024 1024 1025 1026 1026 1027 1028 1028 1030 1031 1032 1032 1033 1033 1034 1035 1036 1037 1037 1035 1034 1034 1035 1036 1037 1037 1037 1038 1038 1038 1041 1042 1042 1040 1040 1040 1039 1039 1039 1038 1036 1035 1035 1034 1034 1033 1031 1030 1029 1026 1025 1023 1020 1017 1014 1012 1010 1008 1007 1005 1005 1004 1004 1004 1003 1003 1003 1002 1001 996 994 994 994 994 994 994 994 994 994 994 994 994 994 994 994 994 994 994 994 994 994 994 994 994 994 994 994 994 994 994 994 994 994 994 994 994 994 994 994 994 994 994 994 994 994 994 994 994 994 994 994 994 994 994 994 994 994 994 994 994 994 995 996 997 997 999 1001 1001 1002 1004 1004 1005 1006 1007 1007 1007 1008 1009 1010 1011 1012 1013 1014 1015 1017 1019 1020 1020 1021 1021 1020 1020 1020 1020 1019 1018 1015 1012 1004 1001 997 997 1007 1011 1011 1008 1009 1016 1017 1017 1018 1019 1019 1019 1019 1018 1019 1019 1021 1022 1022 1022 1024 1024 1025 1026 1027 1027 1029 1030 1031 1032 1032 1033 1034 1036 1037 1038 1039 1040 1041 1042 1042 1043 1043 1045 1045 1047 1048 1050 1051 1052 1052 1051 1052 1053 1055 1056 1057 1058 1058 1060 1061 1062 1064 1065 1066 1067 1067 1069 1071 1072 1074 1076 1077 1077 1078 1079 1079 1080 1081 1084 1085 1087 1089 1091 1088 1084 1082 1085 1085 1084 1082 1080 1079 1078 1076 1074 1073 1073 1073 1072 1072 1074 1075 1076 1077 1075 1072 1071 1067 1063 1061 1059 1056 1054 1051 1049 1046 1039 1032 1026 1028 1030 1030 1031 1032 1033 1033 1033 1034 1034 1035 1035 1035 1032 1028 1024 1020 1021 1022 1024 1025 1026 1027 1027 1024
955 956 957 959 960 961 962 961 961 961 962 962 963 964 965 964 963 963 962 962 963 965 966 966 968 967 967 967 967 967 967 967 967 966 966 966 966 966 967 967 967 968 969 970 970 971 971 973 974 975 976 977 978 979 980 981 983 984 985 986 987 987 987 988 988 989 990 990 991 992 992 993 994 996 998 999 999 999 999 1000 1000 1001 1002 1003 1003 1004 1004 1006 1007 1007 1009 1009 1009 1010 1010 1009 1009 1009 1012 1013 1014 1014 1015 1016 1016 1016 1016 1018 1019 1019 1021 1021 1021 1022 1022 1023 1023 1024 1024 1024 1025 1025 1026 1027 1027 1030 1031 1032 1032 1033 1033 1033 1035 1036 1037 1036 1035 1034 1034 1035 1036 1037 1037 1037 1038 1038 1038 1040 1042 1042 1040 1040 1040 1040 1039 1039 1038 1037 1036 1036 1035 1034 1033 1031 1030 1029 1026 1024 1022 1020 1017 1015 1012 1010 1009 1008 1007 1005 1005 1004 1004 1004 1003 1003 1002 1002 998 995 995 994 993 994 994 994 994 994 995 994 994 994 994 994 994 994 994 994 994 994 994 994 994 994 994 994 994 994 994 994 994 994 994 994 994 994 994 994 994 994 994 994 994 994 994 994 994 994 994 994 994 994 994 994 994 994 994 994 994 994 994 994 994 994 994 995 997 999 1000 1000 1001 1002 1004 1004 1005 1004 1005 1007 1008 1010 1012 1012 1013 1014 1015 1016 1016 1017 1016 1016 1016 1016 1016 1014 1013 1011 1004 998 998 998 1000 1007 1012 1013 1012 1012 1015 1016 1016 1017 1017 1017 1017 1017 1017 1017 1017 1017 1019 1019 1020 1020 1022 1023 1023 1024 1026 1027 1028 1029 1030 1031 1031 1032 1033 1034 1035 1036 1037 1038 1039 1040 1040 1041 1042 1043 1045 1046 1047 1047 1048 1048 1049 1049 1050 1051 1052 1053 1054 1056 1058 1059 1060 1061 1062 1063 1063 1064 1065 1067 1069 1071 1073 1074 1074 1074 1075 1076 1077 1078 1079 1080 1081 1082 1085 1082 1079 1078 1079 1080 1080 1080 1079 1078 1076 1074 1072 1070 1070 1070 1070 1072 1071 1070 1071 1072 1070 1068 1067 1064 1062 1059 1056 1054 1051 1048 1045 1043 1037 1031 1025 1020 1022 1023 1024 1025 1027 1027 1026 1027 1027 1028 1029 1030 1027 1024 1020 1016 1016 1018 1018 1019 1020 1018 1016 1013
955 955 956 958 959 960 961 961 961 961 961 962 962 963 964 964 963 962 962 961 962 963 964 965 966 966 966 966 966 966 966 966 966 966 966 966 966 966 967 967 967 967 969 969 969 969 970 972 973 975 975 976 977 978 979 980 982 983 984 985 985 986 986 988 988 988 989 990 991 991 991 991 993 996 997 998 998 998 998 1000 1000 1001 1002 1002 1002 1003 1004 1005 1006 1007 1008 1008 1009 1010 1010 1009 1008 1009 1012 1013 1014 1013 1014 1015 1015 1016 1016 1017 1018 1019 1020 1020 1020 1021 1021 1021 1022 1022 1023 1024 1024 1025 1025 1026 1027 1029 1031 1032 1032 1033 1033 1033 1034 1035 1036 1035 1034 1034 1033 1035 1035 1037 1037 1037 1037 1038 1038 1039 1041 1041 1041 1039 1039 1039 1039 1038 1038 1037 1036 1036 1035 1034 1033 1031 1030 1028 1026 1024 1022 1020 1017 1015 1012 1011 1011 1010 1008 1007 1006 1005 1005 1004 1004 1003 1003 1004 1001 998 997 997 996 996 996 995 996 996 996 997 998 999 997 996 996 996 996 997 996 998 998 996 996 996 995 995 996 996 995 995 994 994 994 994 994 994 994 994 994 994 994 994 994 994 994 994 994 994 994 994 994 994 994 994 994 994 994 994 994 994 994 994 994 994 994 994 995 995 995 996 997 1000 1002 1002 1002 1001 1001 1004 1005 1007 1009 1010 1011 1012 1012 1012 1013 1014 1013 1013 1013 1012 1010 1009 1007 1005 997 998 999 1001 1003 1006 1012 1012 1013 1014 1014 1015 1016 1016 1016 1016 1016 1017 1016 1016 1016 1016 1016 1016 1017 1018 1019 1020 1021 1022 1023 1024 1026 1027 1027 1028 1030 1030 1030 1031 1031 1032 1033 1034 1036 1037 1037 1038 1039 1041 1042 1043 1043 1043 1043 1044 1045 1046 1046 1047 1048 1049 1050 1053 1054 1055 1057 1057 1058 1059 1060 1061 1062 1064 1065 1067 1068 1070 1070 1070 1071 1072 1073 1074 1074 1074 1073 1073 1074 1074 1074 1073 1073 1073 1074 1075 1076 1076 1073 1072 1069 1068 1068 1069 1071 1072 1071 1069 1069 1069 1066 1065 1062 1061 1059 1056 1053 1050 1047 1044 1041 1038 1032 1026 1020 1017 1017 1017 1020 1021 1022 1022 1022 1022 1022 1023 1023 1024 1022 1020 1016 1014 1013 1014 1013 1013 1013 1011 1008 1005
954 955 956 957 958 959 961 960 960 960 960 961 961 962 963 963 963 962 961 961 961 961 962 963 963 964 964 964 965 965 965 965 965 965 966 966 966 966 966 966 966 966 967 968 968 969 969 970 972 973 974 975 975 977 978 979 980 982 983 985 985 985 985 987 987 988 989 990 990 990 990 990 992 994 995 996 996 997 998 999 1000 1000 1002 1003 1003 1003 1003 1004 1005 1006 1007 1007 1009 1010 1010 1009 1007 1009 1012 1012 1013 1013 1014 1014 1014 1016 1016 1016 1017 1019 1019 1019 1019 1020 1020 1020 1021 1021 1022 1024 1024 1024 1025 1026 1027 1029 1030 1031 1032 1032 1032 1032 1033 1034 1034 1034 1033 1033 1032 1034 1035 1036 1037 1037 1037 1037 1037 1038 1039 1039 1040 1039 1039 1039 1038 1037 1036 1036 1036 1035 1035 1033 1032 1031 1029 1028 1026 1024 1022 1019 1016 1013 1013 1011 1011 1010 1009 1009 1008 1007 1006 1006 1005 1005 1004 1004 1002 1000 1001 1001 1002 1000 1000 999 1000 1000 999 1001 1003 1004 1002 1000 1000 1000 1000 1001 1000 1002 1001 999 1000 1001 1002 1002 1003 1002 1001 1000 998 997 998 1001 998 997 996 995 994 994 994 994 994 994 994 994 994 994 994 994 994 994 994 994 994 994 994 994 994 994 994 994 994 994 994 994 994 994 994 994 995 996 997 998 998 998 999 1000 1001 1003 1006 1008 1008 1010 1011 1011 1011 1011 1010 1009 1009 1007 1006 1004 1002 998 996 1000 1001 1004 1006 1007 1011 1012 1013 1014 1014 1014 1014 1014 1014 1014 1015 1016 1015 1015 1016 1016 1016 1015 1016 1017 1018 1018 1018 1020 1020 1021 1022 1023 1024 1025 1026 1026 1027 1027 1027 1029 1030 1031 1032 1034 1034 1035 1037 1037 1038 1038 1038 1038 1039 1040 1041 1042 1043 1044 1045 1045 1046 1049 1050 1051 1053 1053 1054 1055 1056 1057 1058 1060 1061 1063 1064 1066 1066 1066 1067 1067 1068 1068 1068 1069 1069 1069 1069 1069 1069 1069 1068 1069 1069 1070 1072 1072 1071 1069 1067 1066 1066 1069 1072 1074 1072 1071 1069 1067 1064 1062 1059 1058 1055 1052 1049 1046 1043 1039 1037 1033 1028 1023 1016 1012 1011 1013 1015 1017 1017 1017 1017 1017 1017 1018 1018 1016 1013 1012 1011 1010 1010 1009 1009 1008 1007 1007 1004 1002
953 954 955 956 957 959 960 960 960 960 960 960 961 961 962 962 962 962 961 960 960 960 961 962 961 962 962 963 964 964 964 964 965 965 965 965 965 965 965 965 966 966 966 967 967 968 968 969 970 972 973 974 975 976 976 978 979 981 982 983 984 985 985 986 986 988 989 989 989 989 990 990 991 992 994 995 995 996 997 999 999 1000 1002 1003 1003 1003 1003 1003 1004 1005 1005 1007 1008 1008 1007 1006 1006 1008 1011 1011 1012 1012 1013 1013 1013 1015 1016 1016 1017 1017 1018 1019 1019 1019 1019 1019 1020 1021 1022 1023 1024 1024 1025 1026 1027 1028 1030 1031 1031 1032 1032 1032 1032 1033 1033 1034 1033 1032 1032 1033 1034 1036 1037 1037 1037 1037 1037 1037 1038 1038 1039 1039 1039 1038 1037 1036 1034 1035 1035 1035 1035 1033 1032 1031 1029 1027 1025 1023 1021 1017 1015 1013 1013 1012 1011 1010 1010 1010 1009 1009 1008 1007 1007 1006 1006 1005 1004 1004 1004 1004 1005 1004 1003 1002 1002 1002 1003 1004 1006 1008 1006 1006 1005 1004 1005 1004 1004 1004 1003 1004 1005 1006 1007 1007 1007 1006 1004 1003 1001 1001 1002 1004 1002 1001 1001 1001 999 997 998 1001 1001 999 996 996 995 994 994 994 994 994 994 994 994 994 994 994 994 994 994 994 994 994 994 994 994 994 994 994 994 994 994 995 996 996 997 999 1000 1002 1004 1005 1006 1006 1007 1008 1008 1007 1006 1006 1004 1002 1001 999 998 995 997 1002 1004 1006 1008 1010 1011 1011 1012 1013 1013 1014 1013 1013 1013 1012 1013 1014 1013 1013 1014 1015 1015 1014 1015 1015 1016 1015 1016 1017 1018 1018 1019 1020 1020 1021 1022 1022 1023 1023 1023 1025 1026 1027 1029 1030 1032 1031 1031 1031 1033 1033 1034 1033 1035 1037 1038 1039 1040 1041 1041 1042 1042 1044 1045 1047 1048 1049 1049 1050 1052 1053 1053 1055 1056 1058 1059 1060 1060 1061 1063 1063 1064 1063 1063 1063 1064 1063 1065 1064 1064 1064 1063 1064 1065 1066 1067 1068 1067 1066 1065 1064 1066 1069 1072 1075 1072 1070 1068 1066 1064 1061 1057 1054 1051 1048 1045 1042 1039 1036 1033 1030 1025 1020 1014 1009 1007 1010 1011 1013 1014 1013 1012 1012 1012 1011 1010 1009 1008 1007 1007 1006 1005 1004 1003 1002 1001 1000 999 998
952 954 954 955 957 958 959 960 960 960 960 960 961 961 962 962 962 961 961 960 960 960 960 961 961 961 961 962 963 963 963 963 964 964 964 964 964 964 964 965 965 966 966 966 966 967 967 968 970 971 972 973 974 974 975 977 978 979 981 982 983 984 985 985 986 987 988 988 989 989 989 990 990 992 992 994 995 996 997 998 999 1000 1002 1003 1003 1003 1002 1002 1003 1003 1004 1005 1006 1006 1005 1005 1006 1008 1011 1011 1011 1011 1011 1012 1013 1014 1015 1016 1016 1016 1017 1018 1018 1018 1019 1019 1019 1020 1022 1022 1023 1024 1025 1026 1027 1028 1029 1030 1031 1031 1031 1031 1031 1032 1032 1033 1032 1032 1032 1033 1034 1035 1037 1037 1037 1037 1036 1036 1037 1037 1038 1038 1037 1036 1035 1035 1034 1034 1034 1035 1034 1033 1032 1030 1029 1026 1023 1021 1019 1016 1014 1014 1013 1012 1011 1011 1011 1011 1010 1010 1009 1009 1008 1007 1007 1006 1006 1006 1007 1007 1008 1007 1007 1005 1004 1003 1006 1007 1009 1011 1011 1010 1009 1008 1008 1007 1008 1008 1007 1008 1009 1008 1009 1009 1008 1008 1007 1006 1005 1005 1006 1007 1006 1005 1005 1004 1003 1000 1003 1005 1005 1002 999 999 997 996 996 994 994 994 994 994 994 994 994 994 994 994 994 994 994 994 994 994 994 994 994 994 994 994 994 994 994 995 996 999 1000 1001 1002 1003 1004 1004 1004 1005 1005 1005 1004 1004 1002 999 997 995 1000 1001 1003 1005 1006 1007 1008 1009 1009 1011 1011 1012 1012 1013 1013 1012 1012 1011 1011 1010 1010 1009 1010 1011 1012 1013 1014 1013 1013 1013 1015 1015 1016 1016 1017 1018 1018 1018 1019 1019 1021 1020 1020 1021 1022 1024 1025 1027 1027 1027 1028 1028 1029 1028 1027 1029 1032 1033 1034 1035 1037 1038 1039 1039 1038 1039 1041 1043 1044 1045 1045 1045 1046 1048 1049 1050 1051 1052 1051 1051 1053 1055 1057 1058 1058 1058 1058 1058 1059 1059 1060 1060 1060 1060 1059 1059 1060 1062 1064 1064 1063 1062 1062 1061 1063 1066 1068 1070 1069 1068 1067 1064 1061 1056 1052 1048 1045 1042 1039 1037 1035 1033 1030 1027 1023 1018 1012 1006 1004 1006 1008 1009 1010 1009 1008 1008 1008 1006 1005 1004 1003 1003 1003 1002 1002 1000 999 997 996 994 993 992
952 953 953 954 956 957 958 959 959 959 959 960 960 960 961 962 962 961 960 960 959 960 960 959 959 960 961 961 962 963 963 963 964 964 964 964 963 963 964 964 965 965 966 966 966 966 966 968 969 970 971 972 973 973 974 975 977 979 980 981 982 983 983 984 985 986 987 988 989 989 989 989 990 991 992 993 995 996 997 998 999 1000 1001 1002 1003 1003 1002 1002 1002 1003 1003 1004 1005 1005 1004 1005 1007 1008 1010 1010 1010 1011 1011 1011 1013 1014 1015 1015 1016 1016 1016 1017 1017 1017 1018 1018 1018 1019 1021 1022 1022 1024 1025 1025 1027 1028 1028 1030 1030 1031 1031 1031 1031 1031 1031 1031 1030 1030 1031 1032 1034 1035 1037 1037 1037 1036 1035 1035 1035 1036 1036 1036 1036 1035 1034 1033 1033 1033 1035 1035 1034 1032 1031 1029 1027 1025 1022 1019 1017 1015 1014 1014 1013 1012 1011 1011 1011 1011 1011 1010 1010 1010 1009 1009 1008 1008 1009 1009 1010 1010 1011 1011 1011 1010 1009 1008 1011 1013 1012 1012 1012 1012 1012 1011 1011 1011 1010 1010 1009 1009 1009 1009 1009 1010 1009 1009 1009 1009 1009 1009 1010 1009 1009 1008 1007 1006 1004 1004 1006 1007 1007 1004 1003 1002 1001 1000 998 996 995 994 994 994 994 994 994 994 994 994 994 994 994 994 994 994 994 994 994 994 994 994 994 994 994 994 995 998 999 1000 1001 1002 1002 1003 1003 1004 1003 1004 1003 1002 1001 997 994 995 1002 1004 1005 1006 1007 1007 1007 1008 1008 1010 1010 1011 1012 1012 1012 1012 1011 1011 1008 1007 1007 1007 1008 1009 1010 1012 1012 1012 1011 1011 1013 1012 1013 1014 1015 1016 1016 1017 1017 1017 1018 1018 1018 1017 1018 1020 1022 1024 1024 1025 1025 1026 1026 1025 1026 1028 1029 1028 1029 1031 1034 1035 1035 1035 1034 1035 1036 1039 1040 1040 1041 1042 1042 1043 1044 1045 1046 1044 1044 1045 1046 1049 1050 1053 1052 1052 1053 1054 1054 1055 1055 1056 1056 1055 1055 1055 1056 1058 1058 1059 1059 1059 1059 1058 1061 1062 1064 1066 1065 1063 1060 1057 1054 1050 1046 1042 1039 1037 1035 1033 1031 1029 1027 1024 1021 1015 1009 1004 1001 1002 1004 1006 1006 1005 1005 1005 1005 1004 1002 1001 999 999 999 999 997 996 994 993 992 990 988 986
952 952 953 953 955 956 957 958 958 958 959 959 959 960 961 961 961 961 960 960 959 958 958 958 958 959 959 960 961 962 962 963 963 964 964 963 963 963 963 964 965 965 965 966 966 966 966 967 968 969 970 971 972 973 973 974 976 977 979 980 981 982 982 984 984 985 986 988 988 988 989 989 989 991 992 993 995 996 997 997 998 999 1000 1001 1002 1002 1002 1002 1002 1002 1003 1003 1003 1004 1005 1006 1008 1009 1010 1010 1010 1010 1010 1010 1012 1013 1014 1015 1015 1015 1015 1016 1016 1016 1016 1017 1017 1018 1019 1020 1021 1022 1023 1024 1026 1027 1027 1029 1030 1030 1030 1030 1029 1028 1028 1028 1028 1029 1030 1031 1033 1034 1036 1036 1036 1035 1034 1035 1035 1035 1035 1035 1035 1034 1033 1033 1033 1034 1035 1034 1033 1031 1030 1028 1026 1024 1022 1020 1018 1015 1014 1013 1013 1012 1012 1012 1012 1012 1012 1012 1011 1011 1010 1010 1009 1010 1011 1011 1012 1013 1013 1015 1015 1014 1014 1014 1015 1015 1014 1013 1013 1013 1013 1013 1012 1012 1012 1011 1011 1011 1011 1011 1010 1011 1010 1010 1010 1010 1010 1010 1010 1010 1010 1010 1009 1008 1006 1007 1008 1008 1008 1007 1006 1005 1005 1004 1001 999 997 996 995 995 994 994 994 994 994 994 994 994 994 994 994 994 994 994 994 994 994 994 994 994 994 994 995 998 999 1000 1000 1000 1001 1002 1002 1003 1003 1003 1002 1001 999 997 993 997 1002 1004 1005 1006 1007 1007 1007 1008 1008 1009 1010 1010 1012 1012 1012 1011 1011 1010 1006 1005 1005 1006 1006 1007 1009 1009 1010 1009 1010 1010 1011 1010 1010 1011 1012 1014 1014 1015 1015 1016 1015 1014 1014 1014 1015 1017 1018 1020 1021 1022 1023 1024 1024 1024 1025 1026 1027 1026 1026 1027 1030 1031 1031 1030 1030 1031 1032 1034 1036 1037 1037 1036 1038 1038 1039 1040 1041 1042 1042 1043 1043 1044 1045 1046 1047 1048 1049 1050 1050 1050 1050 1050 1051 1050 1051 1050 1052 1052 1052 1054 1054 1055 1054 1053 1055 1056 1058 1059 1058 1056 1052 1050 1046 1043 1040 1037 1035 1033 1031 1029 1027 1024 1022 1020 1017 1012 1008 1002 999 1000 1001 1001 1003 1003 1003 1004 1004 1002 1001 1000 997 996 996 995 993 992 991 990 988 986 984 981
951 952 952 953 954 956 957 958 958 958 958 958 959 960 960 961 961 960 960 959 960 959 958 957 957 957 958 959 960 961 962 962 962 963 963 963 963 963 963 964 964 965 965 965 965 966 966 966 967 968 969 970 970 972 972 973 974 976 978 980 980 981 981 983 983 984 986 987 987 988 989 989 989 991 992 993 995 996 996 997 998 999 999 1000 1000 1000 1001 1001 1001 1002 1002 1003 1003 1004 1006 1007 1008 1009 1009 1010 1010 1010 1009 1010 1011 1012 1014 1015 1014 1014 1015 1015 1015 1015 1015 1016 1016 1017 1017 1019 1019 1020 1021 1023 1024 1025 1027 1027 1028 1028 1028 1028 1027 1027 1027 1026 1026 1028 1029 1030 1032 1033 1034 1035 1034 1034 1034 1033 1034 1035 1036 1036 1036 1035 1035 1035 1034 1034 1034 1033 1031 1030 1028 1026 1024 1022 1022 1020 1018 1015 1013 1013 1013 1012 1012 1012 1012 1012 1013 1013 1013 1012 1012 1011 1011 1012 1013 1014 1015 1015 1016 1017 1017 1017 1017 1017 1016 1015 1014 1014 1013 1013 1013 1014 1013 1013 1013 1012 1012 1012 1012 1012 1011 1011 1011 1011 1011 1011 1011 1011 1011 1012 1012 1011 1010 1009 1008 1009 1009 1009 1009 1009 1009 1008 1007 1007 1005 1003 1001 999 998 996 996 995 996 995 994 995 994 994 994 994 994 994 994 994 994 994 994 994 994 994 994 994 994 998 998 998 997 999 1001 1001 1002 1003 1003 1002 1001 1000 999 996 992 997 1002 1004 1005 1007 1007 1008 1008 1008 1008 1008 1010 1010 1011 1012 1012 1011 1011 1010 1006 1003 1003 1003 1005 1005 1006 1007 1009 1008 1008 1009 1010 1010 1008 1008 1008 1010 1011 1011 1012 1013 1013 1012 1011 1011 1011 1013 1015 1016 1017 1019 1019 1020 1021 1022 1023 1023 1024 1024 1024 1024 1025 1025 1025 1025 1026 1026 1028 1030 1032 1033 1033 1032 1033 1034 1035 1036 1037 1040 1040 1040 1041 1042 1042 1042 1043 1043 1044 1046 1045 1045 1045 1045 1045 1045 1046 1047 1047 1046 1047 1048 1049 1048 1047 1046 1047 1048 1050 1050 1050 1047 1044 1042 1039 1037 1034 1033 1032 1030 1027 1025 1023 1020 1018 1016 1013 1009 1004 1001 997 996 998 999 1001 1001 1002 1002 1002 1001 999 998 995 995 994 992 991 989 988 987 985 983 981 979
950 951 952 953 954 955 957 958 958 958 958 958 959 959 960 960 961 960 960 960 961 960 959 958 956 957 958 958 959 961 961 961 962 962 963 963 963 963 963 964 964 964 965 965 965 966 966 966 967 968 968 969 970 971 971 972 974 976 977 979 980 980 980 982 982 983 985 986 987 988 988 988 989 990 991 993 994 995 995 996 997 997 998 998 998 999 1000 1000 1001 1002 1002 1003 1003 1005 1007 1008 1008 1008 1009 1009 1009 1009 1009 1010 1010 1011 1013 1014 1014 1014 1015 1015 1015 1014 1014 1015 1016 1016 1016 1018 1018 1018 1021 1022 1023 1024 1025 1026 1026 1026 1026 1026 1025 1024 1024 1024 1026 1027 1028 1029 1030 1031 1032 1034 1033 1033 1033 1032 1033 1036 1036 1036 1035 1034 1034 1033 1032 1031 1031 1030 1029 1028 1026 1024 1022 1021 1021 1020 1018 1015 1013 1013 1013 1012 1012 1012 1012 1013 1013 1013 1013 1013 1013 1013 1014 1014 1015 1015 1016 1018 1018 1019 1019 1018 1018 1017 1016 1016 1015 1014 1014 1014 1014 1014 1014 1014 1013 1014 1013 1013 1012 1012 1012 1011 1012 1012 1012 1012 1012 1012 1012 1012 1012 1011 1010 1010 1009 1010 1010 1010 1010 1010 1009 1009 1009 1009 1007 1005 1003 1001 1000 998 1000 1001 1000 997 997 998 996 995 994 994 994 994 994 994 994 994 994 994 994 994 994 994 994 994 995 995 996 999 1001 1001 1001 999 1002 1001 1001 999 998 995 993 996 1002 1004 1005 1006 1008 1008 1008 1009 1009 1009 1010 1011 1011 1012 1012 1011 1011 1010 1006 1002 1002 1001 1002 1003 1004 1005 1007 1007 1007 1008 1010 1009 1008 1006 1005 1006 1007 1008 1010 1011 1011 1010 1009 1008 1008 1010 1012 1013 1014 1015 1016 1017 1017 1019 1019 1020 1021 1021 1020 1020 1020 1020 1020 1021 1022 1023 1025 1026 1028 1029 1028 1028 1028 1030 1031 1032 1033 1035 1037 1037 1038 1039 1039 1038 1039 1040 1041 1041 1042 1042 1041 1041 1042 1042 1043 1043 1044 1043 1043 1043 1043 1041 1041 1039 1038 1039 1040 1040 1040 1037 1036 1034 1033 1032 1031 1030 1028 1027 1024 1021 1018 1016 1014 1012 1010 1006 1002 999 995 994 996 997 999 1000 1000 1001 1001 999 998 997 994 993 990 989 986 984 983 983 982 981 979 977
949 950 951 952 953 955 956 957 958 958 958 958 958 959 959 960 961 960 960 960 961 960 958 957 955 954 956 957 959 960 961 961 962 962 962 962 963 963 963 964 964 964 965 965 965 966 966 966 967 968 968 968 969 970 970 972 974 975 976 978 979 980 980 981 982 983 984 985 987 987 988 988 988 989 990 992 993 994 994 995 996 996 997 996 997 998 999 999 1001 1001 1002 1003 1003 1004 1005 1007 1007 1008 1008 1008 1008 1008 1009 1009 1010 1011 1012 1013 1013 1014 1014 1014 1014 1014 1014 1015 1015 1016 1016 1017 1016 1017 1019 1021 1022 1023 1024 1025 1025 1025 1025 1025 1023 1023 1022 1023 1024 1025 1027 1028 1029 1030 1032 1034 1034 1033 1032 1032 1036 1036 1034 1033 1032 1031 1029 1028 1027 1026 1026 1026 1026 1025 1024 1023 1021 1019 1019 1018 1017 1015 1013 1013 1012 1012 1012 1013 1013 1013 1014 1014 1014 1014 1014 1014 1014 1015 1015 1017 1018 1018 1020 1020 1020 1019 1019 1017 1017 1017 1016 1015 1015 1015 1015 1015 1015 1015 1014 1014 1013 1013 1013 1012 1012 1012 1012 1012 1013 1012 1012 1013 1012 1012 1012 1011 1011 1011 1010 1010 1011 1011 1011 1011 1011 1011 1011 1011 1009 1007 1005 1003 1002 1002 1003 1004 1003 1002 1003 1004 1002 998 996 995 995 995 994 994 994 994 994 994 994 994 994 995 995 994 993 994 993 994 997 998 997 997 1001 1001 1000 999 998 994 994 998 1002 1004 1006 1007 1008 1009 1009 1009 1009 1009 1011 1011 1011 1012 1012 1011 1009 1008 1005 1002 1001 1000 1000 1001 1002 1003 1005 1006 1006 1006 1008 1008 1006 1004 1003 1003 1004 1006 1007 1008 1008 1007 1006 1006 1005 1007 1008 1010 1010 1011 1012 1013 1014 1014 1015 1016 1017 1017 1017 1016 1016 1015 1017 1018 1020 1020 1021 1022 1025 1025 1024 1024 1024 1026 1027 1028 1029 1030 1033 1034 1035 1035 1035 1035 1035 1036 1038 1038 1039 1039 1037 1038 1038 1039 1039 1040 1040 1040 1039 1039 1039 1037 1036 1034 1032 1032 1031 1031 1031 1030 1030 1029 1028 1027 1027 1025 1024 1022 1019 1017 1014 1013 1010 1008 1007 1004 1001 997 993 991 993 995 997 998 998 998 997 997 995 993 991 991 989 987 984 982 980 980 979 978 976 975
948 950 950 951 952 954 956 957 957 957 957 957 957 958 959 960 960 960 960 960 961 960 958 956 954 952 954 956 957 959 960 960 961 961 962 962 962 963 963 964 964 965 965 966 966 966 966 966 967 967 967 967 968 969 970 972 973 974 976 977 978 979 980 980 981 982 983 984 986 987 987 987 987 988 989 991 992 993 994 994 995 995 995 995 996 997 998 998 1000 1000 1001 1002 1001 1002 1004 1005 1006 1006 1007 1007 1007 1008 1008 1008 1009 1010 1011 1012 1013 1013 1013 1013 1013 1013 1014 1014 1015 1015 1016 1016 1016 1017 1018 1019 1020 1022 1023 1023 1024 1025 1024 1023 1022 1022 1021 1021 1022 1024 1025 1027 1028 1030 1033 1035 1035 1036 1035 1035 1034 1032 1030 1029 1028 1028 1027 1026 1025 1025 1025 1025 1024 1023 1022 1021 1020 1018 1017 1016 1016 1014 1013 1012 1012 1012 1012 1013 1013 1013 1014 1014 1014 1014 1014 1014 1015 1016 1017 1018 1019 1020 1021 1021 1021 1020 1020 1018 1018 1018 1017 1016 1016 1016 1016 1016 1015 1015 1014 1014 1013 1013 1013 1012 1012 1012 1012 1012 1013 1013 1013 1013 1012 1012 1012 1012 1011 1011 1011 1011 1012 1012 1012 1012 1012 1012 1012 1012 1011 1009 1007 1005 1004 1005 1006 1006 1007 1006 1006 1007 1006 1002 1000 1002 1004 1001 999 997 996 995 994 994 995 995 997 997 997 997 996 995 993 991 994 994 993 993 996 998 996 995 994 993 994 998 1002 1005 1006 1007 1008 1009 1010 1010 1010 1010 1010 1011 1011 1012 1011 1010 1009 1007 1005 1003 1002 1001 999 999 1000 1001 1003 1005 1005 1005 1007 1006 1004 1002 1000 1001 1002 1003 1004 1005 1005 1005 1004 1003 1003 1004 1005 1006 1007 1008 1008 1009 1010 1011 1012 1012 1013 1013 1013 1012 1012 1012 1016 1017 1017 1016 1017 1018 1021 1022 1022 1021 1021 1023 1024 1025 1025 1026 1029 1030 1031 1031 1031 1031 1031 1032 1033 1035 1035 1035 1034 1034 1034 1035 1036 1037 1037 1037 1036 1035 1034 1032 1030 1028 1026 1026 1026 1026 1026 1025 1025 1024 1024 1023 1022 1020 1018 1017 1014 1013 1010 1009 1007 1006 1004 1002 998 994 990 988 990 992 993 995 994 994 994 993 992 989 989 988 986 985 982 980 979 978 977 976 974 972
947 949 949 950 952 953 955 957 957 957 956 956 956 957 958 959 959 960 960 960 961 960 958 955 953 951 952 953 956 957 958 958 960 959 960 961 961 962 963 963 964 965 965 966 966 966 966 966 966 966 967 967 967 968 969 971 972 974 975 976 978 978 979 979 980 981 982 984 985 986 986 986 986 987 988 990 991 992 993 993 994 994 994 994 995 996 997 998 999 1000 1001 1001 1000 1001 1003 1004 1005 1005 1006 1007 1007 1007 1007 1008 1009 1009 1010 1012 1012 1012 1012 1012 1012 1013 1014 1014 1014 1015 1015 1015 1015 1016 1017 1018 1020 1021 1022 1023 1023 1024 1024 1023 1023 1022 1021 1021 1023 1025 1026 1028 1030 1032 1033 1032 1032 1032 1032 1032 1030 1029 1028 1027 1027 1026 1025 1025 1023 1024 1023 1023 1021 1021 1020 1019 1017 1017 1016 1014 1014 1013 1012 1012 1012 1013 1013 1013 1014 1014 1014 1014 1014 1014 1014 1014 1015 1016 1018 1018 1019 1020 1021 1021 1022 1021 1020 1019 1019 1018 1018 1017 1017 1017 1016 1016 1015 1015 1014 1014 1013 1013 1013 1013 1013 1012 1012 1012 1012 1013 1013 1013 1013 1012 1012 1012 1012 1012 1012 1012 1012 1012 1012 1012 1012 1012 1012 1012 1012 1011 1009 1007 1007 1008 1008 1009 1009 1009 1009 1009 1008 1006 1007 1007 1008 1006 1004 1003 1002 1001 998 998 999 1000 1001 1000 1000 1000 1000 998 996 996 994 992 991 990 992 993 991 989 989 992 994 998 1001 1004 1006 1008 1009 1009 1010 1010 1010 1010 1010 1011 1011 1012 1011 1010 1008 1006 1005 1004 1004 1003 1001 997 998 1000 1003 1004 1004 1003 1004 1004 1002 1000 997 997 998 1000 1000 1001 1001 1001 1000 1000 1000 1001 1002 1002 1004 1005 1005 1006 1007 1007 1008 1008 1009 1010 1010 1009 1008 1008 1012 1013 1012 1012 1013 1015 1017 1019 1019 1019 1018 1019 1020 1020 1021 1022 1024 1026 1027 1027 1027 1028 1028 1029 1029 1030 1031 1031 1031 1031 1031 1031 1033 1034 1034 1033 1032 1031 1030 1028 1026 1023 1022 1021 1021 1022 1021 1021 1020 1019 1019 1018 1016 1015 1012 1011 1009 1007 1005 1004 1003 1002 1000 998 995 991 987 984 986 987 989 990 990 990 990 989 988 986 986 984 983 981 980 979 977 976 976 974 972 970
947 948 949 949 951 952 954 956 957 956 955 955 955 955 956 957 957 958 960 960 960 960 958 955 953 950 950 952 954 955 957 957 958 958 959 960 960 961 962 963 964 965 965 966 966 966 966 966 966 966 967 967 966 967 969 969 970 972 973 975 976 977 978 978 979 980 981 983 984 985 985 985 985 985 987 988 990 991 991 992 992 993 993 993 994 995 995 997 998 999 1001 1001 1000 1000 1002 1003 1003 1005 1005 1006 1006 1007 1007 1008 1008 1008 1009 1011 1011 1011 1011 1011 1012 1012 1013 1014 1014 1014 1014 1014 1014 1014 1016 1017 1019 1020 1021 1022 1022 1023 1024 1025 1025 1024 1023 1024 1027 1028 1029 1030 1031 1032 1031 1028 1026 1026 1027 1028 1026 1026 1025 1024 1025 1024 1023 1022 1021 1021 1020 1019 1019 1019 1018 1017 1016 1015 1014 1014 1012 1012 1011 1012 1013 1013 1014 1014 1014 1013 1013 1013 1013 1013 1013 1014 1015 1016 1017 1019 1019 1020 1021 1021 1022 1021 1021 1020 1020 1018 1018 1018 1017 1018 1017 1016 1015 1015 1015 1014 1013 1013 1013 1013 1013 1013 1013 1013 1013 1013 1013 1013 1013 1012 1012 1012 1012 1012 1012 1012 1012 1012 1012 1012 1012 1013 1013 1013 1013 1012 1010 1009 1009 1010 1010 1011 1011 1011 1011 1011 1011 1011 1011 1012 1012 1011 1009 1007 1006 1003 1001 1003 1003 1003 1004 1004 1004 1004 1004 1003 1001 1001 1000 999 998 998 997 995 992 990 988 989 993 997 1000 1003 1004 1006 1007 1009 1010 1010 1010 1010 1011 1011 1011 1012 1011 1010 1008 1007 1005 1005 1004 1004 1003 999 995 997 1000 1003 1001 1001 1002 1001 1000 998 995 995 995 996 997 998 998 998 997 997 997 997 999 1000 1001 1001 1002 1003 1004 1003 1004 1005 1006 1008 1007 1006 1005 1004 1008 1010 1010 1009 1009 1012 1015 1017 1017 1015 1015 1016 1015 1016 1017 1018 1019 1021 1023 1023 1023 1023 1025 1025 1026 1026 1027 1027 1027 1027 1027 1027 1028 1029 1030 1029 1027 1026 1025 1024 1021 1020 1018 1017 1016 1017 1017 1017 1015 1014 1013 1011 1009 1008 1006 1005 1003 1002 1000 999 999 997 996 994 990 986 983 980 982 983 985 986 986 986 987 986 984 983 983 981 980 979 978 977 976 975 975 974 970 969
947 947 948 949 950 951 953 954 955 955 955 954 954 954 954 954 954 955 957 959 960 960 959 956 952 950 948 950 951 954 955 956 956 957 958 958 960 960 961 962 963 964 965 966 966 966 966 966 966 966 966 966 966 967 968 969 969 971 972 973 974 976 977 977 978 979 981 982 983 984 984 984 984 985 986 987 989 989 990 990 991 991 991 992 993 993 994 997 998 998 1000 1000 999 1000 1001 1002 1003 1004 1005 1006 1006 1006 1007 1007 1007 1008 1009 1009 1010 1009 1010 1011 1012 1012 1013 1013 1013 1014 1014 1013 1013 1013 1015 1017 1018 1019 1020 1021 1022 1022 1023 1024 1025 1026 1025 1026 1029 1029 1030 1029 1029 1028 1027 1025 1022 1023 1023 1023 1023 1023 1023 1022 1022 1022 1021 1020 1018 1018 1017 1016 1017 1017 1016 1016 1015 1014 1013 1012 1011 1011 1010 1010 1012 1013 1014 1014 1013 1013 1012 1012 1013 1013 1013 1014 1015 1016 1016 1018 1018 1019 1020 1020 1021 1021 1021 1021 1020 1019 1019 1019 1019 1019 1018 1017 1016 1015 1015 1014 1014 1013 1013 1013 1013 1013 1013 1013 1013 1013 1013 1013 1013 1012 1012 1012 1012 1012 1012 1012 1011 1011 1012 1012 1013 1013 1013 1013 1013 1013 1012 1012 1010 1011 1011 1012 1012 1012 1013 1013 1012 1013 1014 1014 1014 1014 1012 1010 1008 1006 1005 1006 1006 1006 1007 1008 1007 1008 1008 1007 1006 1006 1005 1005 1003 1004 1003 1002 999 996 993 988 988 993 997 1000 1000 1000 1000 1007 1010 1010 1011 1011 1011 1011 1011 1011 1011 1010 1009 1007 1005 1005 1004 1004 1003 1000 993 994 998 1001 1000 998 999 999 997 995 993 992 993 994 994 995 995 995 995 994 993 994 995 997 998 999 999 999 999 999 1001 1002 1004 1005 1005 1004 1003 1002 1005 1007 1007 1006 1006 1009 1012 1014 1014 1012 1012 1012 1012 1012 1013 1014 1016 1018 1018 1019 1019 1019 1021 1021 1021 1022 1023 1023 1023 1023 1023 1022 1023 1023 1024 1023 1022 1022 1022 1020 1018 1016 1014 1013 1012 1012 1012 1011 1010 1008 1006 1004 1002 1001 999 998 997 996 995 993 993 991 990 989 986 983 980 977 977 979 982 984 984 984 983 983 981 980 979 979 977 977 976 975 974 974 973 973 969 968
946 947 948 948 949 950 951 953 954 953 954 954 954 954 953 952 952 952 954 956 958 959 959 956 953 950 948 948 949 951 953 955 955 956 956 957 959 959 960 962 962 963 964 964 965 965 966 966 966 966 966 966 966 967 967 969 969 971 971 973 972 975 977 977 977 978 980 981 982 984 984 984 983 984 985 986 988 988 989 989 989 990 991 992 992 992 994 996 997 998 998 999 999 999 1000 1001 1002 1003 1004 1005 1006 1006 1006 1006 1006 1007 1008 1008 1009 1009 1010 1010 1012 1012 1012 1013 1013 1014 1014 1013 1013 1013 1014 1016 1017 1018 1019 1020 1021 1022 1022 1023 1024 1025 1024 1022 1023 1023 1024 1025 1025 1024 1023 1021 1020 1020 1021 1021 1021 1021 1021 1020 1020 1020 1018 1017 1016 1015 1014 1015 1015 1015 1015 1014 1013 1013 1013 1011 1011 1009 1009 1010 1011 1012 1013 1013 1013 1013 1012 1012 1012 1013 1013 1014 1015 1015 1017 1017 1018 1019 1019 1020 1020 1020 1020 1020 1020 1020 1020 1020 1020 1020 1018 1018 1017 1015 1015 1014 1014 1013 1013 1013 1013 1013 1013 1013 1013 1013 1013 1013 1013 1012 1012 1012 1012 1011 1011 1011 1011 1011 1012 1013 1013 1013 1013 1013 1013 1013 1013 1012 1012 1012 1013 1013 1013 1014 1014 1014 1013 1014 1014 1014 1015 1015 1013 1012 1010 1009 1008 1009 1009 1009 1009 1010 1010 1011 1011 1011 1010 1009 1008 1008 1007 1007 1007 1006 1003 999 994 988 985 989 993 992 992 993 998 1005 1009 1010 1010 1011 1011 1011 1011 1010 1010 1009 1008 1007 1006 1005 1004 1003 1001 999 993 992 995 999 998 996 996 995 994 992 991 990 992 991 992 992 991 991 990 990 988 989 991 992 994 995 995 995 995 995 997 998 1001 1003 1002 1002 1001 1000 1002 1002 1002 1003 1004 1006 1008 1009 1009 1009 1009 1009 1009 1009 1009 1010 1012 1013 1014 1014 1014 1015 1017 1017 1017 1018 1019 1019 1019 1019 1019 1019 1018 1018 1019 1018 1018 1018 1018 1016 1014 1012 1010 1009 1009 1008 1007 1005 1003 1001 999 996 995 994 992 991 990 989 988 986 986 985 984 983 981 979 976 974 974 977 979 981 981 981 980 979 978 977 977 976 976 975 974 973 972 972 972 971 966 966
945 946 947 947 948 948 950 951 952 952 953 953 953 953 952 952 952 950 952 954 956 958 959 956 953 950 948 946 947 948 950 953 955 955 956 957 958 959 959 961 961 962 963 963 963 965 965 966 966 966 966 966 966 967 967 969 969 971 971 974 974 976 976 976 976 978 979 980 981 983 984 983 983 983 984 985 986 987 987 988 989 990 991 992 992 993 994 995 996 997 997 998 998 998 999 1000 1001 1002 1004 1004 1005 1005 1005 1005 1005 1006 1007 1007 1008 1009 1009 1010 1011 1012 1012 1012 1013 1013 1013 1013 1013 1013 1014 1015 1016 1018 1018 1019 1020 1021 1021 1022 1023 1023 1020 1017 1016 1018 1019 1020 1020 1020 1019 1018 1018 1018 1017 1018 1018 1018 1018 1017 1017 1017 1016 1015 1015 1014 1013 1014 1014 1014 1014 1013 1012 1012 1012 1010 1010 1009 1009 1009 1011 1011 1013 1013 1013 1012 1012 1012 1012 1012 1013 1014 1014 1015 1016 1017 1017 1018 1019 1019 1020 1020 1020 1020 1020 1020 1020 1020 1020 1020 1019 1018 1017 1015 1015 1014 1014 1013 1013 1013 1013 1013 1013 1013 1013 1013 1013 1013 1013 1012 1012 1012 1011 1011 1011 1011 1011 1011 1012 1013 1013 1013 1014 1014 1014 1013 1013 1013 1013 1013 1013 1014 1014 1014 1014 1015 1015 1015 1015 1015 1015 1016 1015 1013 1013 1012 1012 1012 1012 1012 1012 1013 1013 1014 1014 1014 1013 1012 1011 1010 1009 1009 1009 1009 1006 1001 996 991 987 984 984 984 984 989 997 1005 1009 1009 1009 1009 1009 1009 1009 1008 1008 1007 1007 1005 1004 1003 1001 1001 1000 997 992 990 993 995 995 994 993 992 992 990 989 989 989 989 988 988 987 987 986 985 984 984 986 987 989 991 991 990 990 990 991 993 994 997 997 996 996 996 997 997 996 997 1000 1002 1003 1004 1005 1006 1006 1006 1006 1006 1006 1007 1008 1009 1009 1010 1011 1011 1012 1013 1013 1014 1014 1015 1015 1015 1014 1014 1014 1013 1013 1013 1013 1013 1012 1011 1010 1008 1006 1005 1005 1003 1001 999 997 995 994 992 991 989 987 986 985 983 982 980 979 979 978 977 975 973 972 971 972 975 977 979 979 978 977 975 975 975 975 975 974 973 973 971 971 971 970 968 964 964
945 945 946 946 946 948 949 949 951 951 952 952 952 952 952 951 951 950 950 953 954 956 958 955 953 950 947 946 946 946 947 951 953 954 956 957 957 958 959 960 961 962 962 962 962 963 964 966 965 966 966 966 966 967 968 969 970 970 973 974 975 977 977 977 977 977 978 979 981 982 983 982 982 982 982 984 985 986 987 987 989 990 990 991 992 993 993 994 995 996 997 996 997 998 999 1000 1000 1001 1003 1003 1004 1004 1004 1005 1005 1005 1006 1006 1007 1008 1008 1010 1010 1011 1011 1012 1012 1012 1013 1013 1013 1013 1014 1015 1016 1017 1017 1018 1018 1020 1020 1020 1021 1019 1016 1013 1013 1014 1015 1017 1018 1017 1017 1016 1015 1015 1015 1016 1016 1016 1016 1015 1015 1015 1015 1015 1014 1012 1012 1012 1012 1013 1012 1012 1012 1011 1011 1010 1009 1009 1008 1008 1010 1011 1013 1013 1013 1012 1012 1012 1012 1012 1013 1014 1014 1015 1016 1016 1017 1018 1018 1019 1020 1020 1020 1020 1021 1021 1021 1020 1020 1020 1019 1018 1017 1015 1014 1014 1013 1012 1013 1013 1013 1013 1013 1013 1013 1013 1013 1013 1013 1012 1012 1012 1011 1011 1012 1012 1012 1011 1011 1012 1013 1013 1014 1014 1014 1014 1013 1013 1013 1013 1013 1014 1014 1015 1015 1015 1015 1015 1016 1016 1016 1016 1016 1016 1015 1015 1015 1015 1014 1014 1014 1014 1015 1016 1017 1017 1016 1014 1013 1013 1012 1012 1012 1012 1010 1006 1002 997 992 987 984 982 981 985 994 1001 1008 1008 1008 1008 1008 1008 1008 1007 1007 1006 1005 1004 1003 1001 1000 999 998 996 992 989 990 992 993 992 990 990 989 988 988 987 986 985 985 984 984 984 983 982 980 979 981 983 984 986 986 986 985 986 986 987 988 989 990 991 991 991 992 992 991 992 995 998 999 1000 1001 1002 1003 1002 1003 1003 1003 1003 1004 1004 1005 1006 1007 1007 1008 1009 1009 1010 1010 1011 1011 1010 1009 1008 1008 1008 1007 1007 1007 1007 1006 1005 1005 1003 1002 1001 999 997 995 993 991 989 989 987 986 984 984 983 982 980 979 977 976 975 973 973 970 969 968 968 971 973 976 979 978 976 975 974 974 974 974 974 973 972 971 970 970 970 969 965 963 962
945 944 945 945 945 946 948 948 949 950 951 951 951 952 951 950 950 949 949 951 953 955 957 955 952 949 947 945 945 945 945 948 950 953 955 956 957 958 959 960 961 961 961 960 961 961 962 963 964 964 965 965 965 966 967 968 970 970 971 973 974 975 976 976 976 976 977 979 980 981 981 981 981 981 982 982 983 984 986 987 989 989 990 990 991 992 992 993 994 995 996 996 997 998 999 999 999 1001 1001 1002 1003 1003 1003 1004 1004 1004 1005 1005 1006 1007 1007 1009 1010 1010 1011 1011 1011 1012 1012 1013 1013 1013 1014 1014 1015 1015 1015 1017 1017 1018 1018 1019 1018 1014 1013 1011 1011 1012 1013 1015 1016 1015 1015 1014 1013 1013 1013 1013 1013 1014 1013 1012 1012 1012 1012 1011 1011 1011 1011 1011 1011 1011 1011 1011 1011 1010 1010 1009 1009 1008 1008 1008 1009 1010 1012 1013 1012 1012 1011 1011 1011 1012 1013 1013 1014 1015 1016 1016 1017 1017 1018 1019 1019 1020 1020 1020 1021 1021 1021 1021 1020 1020 1020 1018 1017 1015 1013 1012 1012 1012 1013 1013 1013 1013 1013 1013 1012 1012 1012 1012 1012 1012 1011 1011 1011 1012 1012 1013 1013 1012 1011 1011 1012 1012 1013 1013 1014 1014 1014 1013 1013 1013 1014 1014 1014 1015 1015 1015 1016 1015 1016 1016 1017 1017 1017 1017 1017 1016 1016 1016 1015 1016 1016 1016 1017 1018 1019 1019 1018 1017 1016 1014 1014 1014 1015 1015 1015 1011 1008 1004 999 995 992 988 983 981 989 996 1005 1005 1006 1006 1006 1006 1006 1005 1005 1005 1003 1002 1001 1000 998 997 996 994 991 988 987 989 991 988 987 987 987 986 984 984 982 982 982 982 982 982 980 979 977 975 977 978 979 980 980 980 980 981 982 982 983 984 985 986 986 987 988 988 988 987 992 994 996 996 997 998 998 998 999 999 999 1000 1000 1001 1001 1002 1003 1003 1003 1004 1005 1006 1007 1007 1007 1005 1002 1002 1002 1001 1001 1001 1001 1000 1000 999 999 998 997 996 993 991 989 987 985 984 984 982 982 981 981 980 979 977 976 975 973 968 968 970 964 963 964 970 973 974 976 979 978 977 976 975 975 974 974 973 972 971 970 969 967 969 969 966 962 962
944 944 944 945 945 945 946 947 948 949 949 950 951 952 951 950 949 948 948 949 952 954 955 954 951 948 946 944 944 944 944 946 947 951 954 956 956 958 958 959 960 959 958 958 959 959 960 960 961 961 962 962 962 964 965 966 967 968 968 969 970 972 973 974 975 975 976 977 979 981 980 980 980 981 981 981 981 982 985 986 988 988 989 989 990 990 991 992 993 994 995 996 996 998 999 999 999 1000 1000 1001 1003 1003 1003 1003 1004 1003 1004 1005 1005 1006 1006 1008 1009 1009 1010 1010 1010 1011 1012 1012 1012 1012 1012 1013 1013 1013 1014 1015 1015 1016 1017 1016 1014 1013 1011 1010 1009 1011 1012 1013 1014 1014 1013 1012 1011 1010 1010 1010 1010 1011 1010 1010 1009 1009 1009 1009 1009 1009 1009 1010 1010 1011 1010 1010 1010 1009 1009 1008 1008 1007 1007 1007 1008 1009 1011 1012 1012 1011 1011 1011 1011 1012 1013 1013 1015 1015 1016 1017 1017 1017 1018 1018 1019 1020 1020 1020 1021 1021 1021 1021 1020 1020 1019 1018 1016 1014 1012 1011 1011 1012 1013 1013 1013 1012 1012 1012 1012 1011 1011 1011 1011 1011 1011 1011 1011 1012 1012 1012 1013 1012 1011 1011 1011 1011 1012 1013 1014 1015 1014 1014 1013 1013 1014 1014 1015 1015 1015 1015 1016 1016 1016 1016 1018 1017 1018 1017 1018 1018 1017 1017 1017 1017 1017 1017 1019 1019 1020 1020 1020 1019 1018 1017 1017 1017 1017 1019 1017 1014 1010 1008 1005 1001 995 992 987 980 982 992 999 1003 1003 1003 1005 1005 1004 1003 1003 1002 1001 1000 999 998 997 995 994 993 990 987 984 986 988 985 984 985 986 985 983 981 981 980 980 980 980 978 977 975 973 971 971 972 973 973 975 975 975 975 977 978 979 980 982 982 983 984 986 986 985 983 987 991 992 992 992 993 993 994 994 994 995 996 997 997 998 999 999 999 999 999 1000 1000 1001 1002 1000 997 996 995 995 994 994 994 994 994 994 994 993 992 992 990 989 986 984 981 980 979 979 978 976 976 975 974 974 971 969 966 964 963 965 967 962 957 963 972 976 976 977 978 978 978 977 976 975 975 974 974 973 970 969 967 966 967 967 967 964 964
943 943 943 944 944 944 944 945 947 947 948 949 951 952 952 950 949 948 947 948 950 952 954 953 950 948 945 943 943 943 943 944 946 949 952 954 955 957 957 958 959 957 956 956 956 956 957 957 958 958 958 959 960 961 962 964 964 965 966 966 967 967 968 971 974 974 976 977 979 981 980 980 981 980 981 981 982 983 985 986 987 987 988 988 989 989 990 991 992 993 994 995 996 998 998 999 999 999 1000 1000 1002 1002 1002 1003 1003 1003 1004 1004 1005 1005 1006 1007 1008 1009 1009 1009 1010 1011 1011 1011 1011 1011 1011 1012 1012 1012 1013 1013 1014 1015 1015 1014 1012 1012 1011 1009 1008 1008 1009 1011 1012 1012 1011 1010 1009 1008 1008 1008 1008 1008 1008 1008 1007 1006 1006 1006 1006 1006 1006 1007 1008 1009 1009 1010 1009 1008 1009 1008 1008 1007 1007 1007 1008 1009 1010 1011 1011 1011 1011 1012 1012 1013 1013 1014 1016 1016 1016 1016 1016 1016 1017 1018 1018 1019 1020 1020 1021 1021 1021 1021 1020 1020 1019 1017 1015 1013 1011 1011 1011 1012 1012 1012 1012 1012 1012 1012 1012 1011 1011 1011 1011 1011 1010 1011 1012 1012 1011 1011 1013 1013 1012 1011 1011 1011 1011 1012 1014 1014 1014 1014 1013 1013 1013 1014 1015 1015 1016 1016 1016 1017 1017 1017 1018 1018 1019 1018 1018 1018 1018 1018 1018 1018 1017 1018 1019 1020 1021 1022 1021 1020 1020 1019 1019 1020 1019 1020 1019 1016 1013 1010 1007 1003 999 994 990 983 979 984 992 998 1000 1001 1002 1003 1002 1002 1001 1001 999 999 998 997 996 994 993 991 989 985 983 983 984 981 982 983 985 984 983 981 979 978 978 977 976 975 973 971 968 967 966 967 967 968 968 969 971 971 973 974 975 976 977 979 980 982 984 984 983 980 980 986 987 987 986 988 988 989 989 990 991 992 992 993 994 995 995 994 994 993 994 994 995 995 993 992 991 990 990 988 988 987 988 988 988 988 987 986 986 985 984 981 978 975 975 974 973 973 970 968 966 965 964 962 961 958 958 961 963 963 959 955 961 970 974 975 975 976 977 977 976 976 976 975 974 974 973 970 969 966 965 964 964 964 965 965
942 942 942 942 942 943 943 944 945 946 948 949 951 951 952 950 949 948 946 947 949 951 952 953 950 947 945 942 942 942 942 943 945 948 951 953 955 955 956 957 958 955 953 953 952 953 953 954 955 955 956 957 957 959 960 960 962 963 964 964 963 964 967 971 973 973 974 977 979 980 981 982 981 980 981 981 982 983 985 986 986 987 987 988 988 988 988 990 991 992 994 995 996 998 998 998 998 999 999 1000 1001 1001 1001 1002 1002 1002 1003 1003 1004 1005 1006 1006 1008 1008 1009 1009 1010 1010 1011 1011 1011 1011 1011 1011 1011 1011 1013 1013 1013 1013 1014 1013 1011 1011 1009 1008 1006 1006 1008 1009 1010 1009 1009 1007 1006 1005 1004 1005 1005 1006 1006 1005 1005 1004 1004 1004 1004 1004 1004 1004 1006 1006 1007 1009 1008 1008 1008 1008 1008 1007 1007 1007 1008 1009 1009 1010 1011 1011 1011 1012 1012 1013 1014 1015 1016 1016 1016 1016 1017 1018 1018 1019 1019 1020 1020 1020 1020 1021 1021 1021 1020 1020 1020 1017 1016 1013 1011 1011 1011 1011 1011 1010 1011 1011 1011 1011 1010 1011 1011 1011 1011 1010 1010 1010 1011 1011 1010 1010 1012 1012 1012 1011 1011 1011 1011 1011 1012 1013 1013 1013 1013 1013 1013 1014 1015 1015 1016 1016 1016 1017 1017 1018 1018 1019 1019 1019 1018 1018 1018 1018 1018 1018 1018 1018 1019 1020 1021 1022 1021 1021 1021 1020 1020 1020 1020 1020 1020 1018 1015 1013 1010 1006 1002 997 993 987 981 978 983 988 992 995 999 1000 1000 999 999 998 998 997 996 995 995 993 992 990 988 985 981 979 981 979 980 981 983 982 980 979 977 976 975 974 972 970 969 966 964 963 961 962 960 960 960 961 964 966 967 969 970 972 973 975 977 980 981 982 979 976 975 981 982 981 980 981 982 983 984 985 986 986 986 988 989 990 989 989 987 987 987 987 988 989 988 986 985 984 984 983 982 981 982 981 982 982 982 982 981 981 978 976 974 971 969 968 967 966 963 961 958 957 955 955 955 955 957 957 959 957 954 954 959 966 971 972 972 974 975 975 975 975 976 975 974 974 973 971 969 967 965 964 964 963 963 962
940 940 941 941 941 941 942 942 943 944 944 947 949 951 952 950 947 944 944 946 948 949 951 953 950 947 944 941 940 941 942 942 945 947 950 951 953 955 955 956 954 951 952 951 951 953 953 954 954 954 954 954 955 955 956 958 959 960 961 961 961 964 971 975 971 970 973 974 977 978 981 982 981 981 981 981 982 983 985 986 986 986 987 988 988 988 988 989 991 992 993 994 996 997 997 998 998 998 999 1000 1000 1001 1001 1001 1001 1002 1002 1003 1004 1005 1006 1006 1007 1007 1008 1009 1009 1009 1011 1011 1010 1010 1010 1010 1010 1011 1012 1012 1013 1013 1013 1012 1011 1009 1008 1006 1005 1005 1005 1006 1006 1006 1005 1004 1003 1003 1003 1003 1004 1004 1004 1003 1002 1002 1001 1001 1001 1001 1001 1002 1003 1004 1006 1007 1007 1008 1008 1007 1007 1007 1007 1007 1008 1008 1009 1010 1011 1011 1011 1012 1012 1013 1014 1015 1016 1016 1016 1017 1018 1019 1020 1020 1020 1020 1020 1020 1020 1021 1021 1021 1021 1021 1021 1018 1016 1014 1012 1011 1011 1011 1010 1009 1009 1009 1010 1010 1009 1010 1010 1011 1012 1010 1010 1010 1010 1010 1010 1010 1011 1012 1011 1011 1011 1011 1011 1011 1011 1012 1012 1012 1013 1013 1013 1014 1015 1015 1016 1016 1017 1017 1018 1018 1018 1018 1018 1018 1018 1018 1019 1019 1019 1019 1019 1019 1019 1020 1020 1021 1020 1020 1020 1020 1020 1020 1020 1020 1020 1018 1017 1014 1012 1009 1005 1001 997 992 986 978 977 980 984 988 992 998 999 997 997 997 995 995 994 993 993 991 990 988 987 983 979 977 977 977 978 978 979 977 975 975 975 974 972 971 968 967 965 963 961 959 957 957 956 955 954 956 958 961 963 964 965 966 966 968 970 973 976 978 975 972 969 971 973 973 972 974 975 978 978 979 979 979 981 982 983 984 984 983 982 980 981 981 982 983 982 981 980 979 978 977 975 975 975 975 976 976 976 975 975 974 973 970 967 965 963 963 961 960 958 954 952 952 951 953 953 953 952 950 948 947 949 954 957 963 968 969 971 972 973 973 974 975 976 975 974 974 972 971 969 967 965 964 964 963 961 961
938 939 939 940 940 940 940 941 941 942 942 943 946 948 948 947 944 943 943 945 946 948 950 952 949 946 943 940 940 940 941 942 944 946 948 949 952 952 951 951 950 950 951 953 954 955 956 955 955 955 955 955 956 956 956 957 958 958 958 959 961 964 973 972 968 969 970 973 975 976 977 978 980 981 981 982 983 983 984 985 986 986 987 987 988 988 988 990 991 992 993 994 995 996 997 998 997 997 999 999 1000 1001 1001 1001 1001 1001 1002 1003 1003 1005 1006 1006 1006 1006 1007 1008 1008 1009 1010 1010 1010 1010 1009 1009 1010 1011 1011 1012 1012 1012 1012 1011 1010 1008 1007 1006 1003 1003 1003 1003 1003 1003 1002 1001 1001 1001 1001 1001 1002 1002 1002 1002 1001 1001 1000 1000 1000 1000 1000 1000 1001 1002 1003 1004 1005 1006 1006 1007 1007 1007 1007 1007 1007 1008 1008 1010 1010 1010 1011 1012 1012 1013 1014 1015 1016 1017 1017 1018 1019 1019 1020 1020 1020 1021 1020 1021 1021 1021 1021 1021 1021 1021 1021 1019 1017 1016 1014 1012 1012 1012 1012 1012 1011 1010 1010 1010 1011 1010 1010 1009 1009 1010 1010 1011 1012 1011 1011 1010 1011 1012 1011 1011 1011 1011 1011 1011 1011 1012 1012 1012 1013 1013 1014 1014 1015 1015 1016 1016 1017 1017 1018 1018 1018 1018 1018 1018 1018 1018 1018 1019 1019 1019 1019 1019 1019 1019 1019 1020 1020 1019 1019 1019 1019 1019 1019 1019 1019 1018 1016 1014 1013 1011 1009 1005 1002 997 990 981 975 975 977 981 988 995 997 997 995 995 994 993 993 992 991 989 988 986 985 981 979 977 974 975 975 975 974 974 972 972 973 972 970 968 966 963 962 960 958 956 955 953 953 951 950 952 954 956 957 957 958 959 960 961 963 966 969 972 969 966 962 962 962 963 966 968 970 971 972 973 972 973 975 976 977 978 978 977 975 974 975 975 976 976 976 975 974 972 971 970 968 969 969 969 969 969 969 969 968 967 967 964 961 959 956 955 954 952 950 950 949 949 948 948 949 949 946 942 944 950 956 960 963 964 966 967 968 969 972 973 974 975 976 976 974 973 971 970 969 967 965 964 963 962 961 960
936 937 937 938 938 938 939 939 939 939 940 940 941 943 943 942 942 941 941 943 945 947 949 950 949 946 943 939 939 939 940 941 942 943 946 948 950 948 946 946 949 951 953 955 956 957 957 957 957 957 957 957 958 958 958 959 959 959 959 959 960 962 966 967 966 967 968 970 972 974 975 975 977 978 979 980 980 980 983 986 986 985 984 987 988 989 989 991 991 992 992 994 994 995 997 997 997 997 998 999 1000 1001 1001 1001 1001 1001 1002 1002 1003 1005 1005 1005 1005 1006 1006 1007 1008 1008 1010 1010 1010 1010 1010 1010 1010 1011 1011 1011 1011 1011 1011 1010 1009 1008 1006 1005 1003 1002 1002 1002 1001 1001 1000 1000 999 999 999 1000 1000 1000 1000 1000 1000 999 999 999 999 999 999 999 1000 1000 1001 1002 1004 1004 1005 1006 1006 1006 1006 1006 1006 1007 1008 1009 1009 1010 1011 1012 1012 1013 1014 1015 1016 1017 1017 1018 1019 1019 1020 1020 1020 1021 1021 1021 1021 1021 1021 1021 1021 1021 1021 1020 1019 1017 1016 1014 1014 1013 1013 1013 1012 1011 1011 1011 1011 1011 1011 1010 1010 1010 1011 1011 1012 1011 1011 1010 1011 1012 1011 1011 1011 1011 1011 1011 1011 1012 1012 1012 1013 1013 1014 1015 1015 1015 1016 1017 1017 1017 1018 1018 1018 1018 1018 1018 1017 1018 1018 1019 1019 1019 1019 1019 1019 1019 1018 1019 1019 1018 1018 1018 1018 1018 1018 1018 1018 1018 1016 1015 1013 1011 1009 1008 1005 1001 993 984 974 972 972 975 984 992 995 995 994 993 993 992 991 990 988 987 986 984 984 981 979 976 973 974 973 972 972 970 968 969 969 969 966 963 962 960 960 958 956 953 951 950 948 947 947 948 950 951 951 952 952 953 953 954 956 959 962 965 963 960 958 958 956 956 959 961 964 965 966 966 966 966 967 968 970 971 970 969 968 967 968 968 969 970 969 967 966 964 963 963 963 964 963 963 963 963 962 962 961 961 960 958 956 953 951 949 949 948 945 946 947 946 946 944 944 942 944 945 945 951 958 960 962 963 964 965 967 969 970 971 973 974 975 975 973 972 971 969 968 965 965 964 963 961 961 960
