ncols        463
nrows        51
xllcorner    448869.827369
yllcorner    6047294.74399
cellsize     18.758564863640
NODATA_value 32767
881 881 881 881 881 881 881 881 881 882 883 882 884 884 884 883 882 882 880 881 881 882 882 883 882 882 881 881 880 880 880 880 879 879 878 878 877 876 875 875 874 873 872 870 870 868 866 865 864 862 861 858 857 855 852 849 847 844 843 842 841 839 836 832 829 825 823 821 819 818 820 822 823 824 824 826 827 828 829 829 829 831 831 833 832 832 832 832 829 827 825 824 823 824 824 824 824 823 822 821 820 818 817 815 814 813 813 812 812 812 810 810 808 808 808 807 807 807 808 808 808 809 809 808 806 803 803 804 804 805 805 805 805 805 805 805 805 805 804 804 805 805 805 805 805 804 804 804 803 803 802 802 802 801 801 800 801 802 803 803 802 800 800 798 798 799 799 799 800 799 799 798 798 798 797 797 797 797 797 796 796 796 796 794 793 792 790 791 791 793 793 793 793 793 793 793 792 792 792 792 792 793 794 797 799 802 805 807 807 808 809 809 809 811 811 813 814 815 817 818 818 817 817 816 816 814 813 813 811 811 810 810 809 808 807 808 812 812 815 816 818 818 817 815 815 814 815 816 817 817 817 815 814 813 811 811 812 817 820 821 820 819 818 818 818 817 816 817 819 819 820 819 819 819 819 819 819 820 819 818 817 817 817 818 818 819 820 821 823 825 826 826 825 821 819 822 826 826 828 831 831 831 833 835 836 837 837 837 838 840 842 842 846 849 852 853 855 857 857 858 858 858 859 860 862 864 865 867 868 869 871 871 871 872 873 871 871 869 869 868 867 866 865 864 864 863 862 861 862 864 865 867 869 871 874 875 877 880 882 884 887 887 887 886 886 885 885 885 884 883 882 881 880 880 877 876 874 873 870 867 865 862 859 857 854 852 854 858 862 865 866 866 866 866 866 866 865 863 862 861 858 857 855 854 853 853 855 855 856 857 857 860 861 861 861 859 858 856 854 853 851 847 846 844 843 842 843 844 847 848 848 848 848 848 848 848 847 846 845 844 842 841 840 840 840 840 838 835 833 830 829 825 824 827 829 830 832 833 834 837 841 844 847
879 880 880 880 880 880 880 880 880 880 881 881 882 882 883 882 881 881 880 880 881 882 882 883 882 882 881 881 881 880 880 880 879 878 878 878 877 876 875 875 875 873 872 871 870 869 866 865 864 862 861 859 858 856 853 850 848 845 844 843 841 840 837 834 830 827 824 822 820 817 818 820 820 822 823 825 826 826 828 827 827 828 828 829 829 830 830 829 827 826 824 823 823 823 822 822 822 820 820 819 817 816 815 814 813 813 813 813 813 811 811 810 808 808 808 808 808 808 808 808 807 807 809 808 806 803 803 804 805 805 805 805 805 805 805 805 805 804 804 804 805 805 805 805 805 804 804 804 803 803 802 802 802 801 801 800 800 801 802 802 802 800 799 798 797 798 798 799 799 799 798 798 797 797 797 796 796 796 796 797 797 796 795 795 793 792 790 791 792 793 793 793 793 793 793 792 792 792 792 792 792 792 793 795 798 801 804 805 806 806 808 808 809 810 811 812 813 815 816 817 816 816 816 814 813 813 812 811 810 809 809 808 808 807 807 808 810 812 814 815 817 817 815 814 813 812 813 814 815 815 815 813 811 810 809 809 813 817 818 818 817 816 816 815 815 815 815 815 816 817 818 819 818 818 817 817 818 818 818 816 816 816 816 817 817 818 819 821 822 823 824 825 824 819 819 822 827 827 828 829 830 831 833 835 836 837 838 839 837 837 840 842 846 850 852 854 856 858 858 858 858 858 859 861 862 865 866 867 869 870 872 872 872 873 873 872 871 870 869 868 868 867 867 866 865 864 863 861 862 864 865 868 869 871 874 875 878 880 882 884 887 887 887 886 886 885 884 883 883 882 881 880 879 879 876 874 872 870 868 865 862 859 857 855 853 856 861 861 864 867 867 866 866 866 866 866 867 865 863 862 861 860 858 857 857 858 858 858 859 860 861 862 864 863 861 859 857 855 854 851 850 849 847 846 845 845 845 845 847 848 848 849 850 850 849 848 847 845 843 842 841 840 839 838 838 838 836 833 831 828 828 825 825 827 829 830 832 833 835 837 840 844 846
878 878 878 878 878 878 878 878 878 878 879 879 880 880 881 881 880 880 881 881 881 881 882 882 882 882 881 881 880 880 880 879 879 878 878 877 877 876 876 875 875 873 872 871 870 869 867 865 863 862 861 860 858 857 854 851 849 846 845 844 842 841 837 835 831 828 825 823 821 819 817 818 818 820 822 824 825 826 827 827 827 826 825 826 826 827 827 827 826 824 823 822 822 822 821 821 819 818 818 816 815 814 813 813 813 813 813 813 813 811 811 810 808 808 809 809 809 807 808 808 807 807 808 808 806 803 803 805 805 805 805 805 805 805 805 805 805 804 804 804 805 805 805 805 805 804 804 804 803 803 802 802 802 801 801 800 800 800 801 801 801 800 799 798 797 797 798 799 799 799 798 798 796 797 797 796 796 796 796 797 797 796 795 794 793 791 790 791 792 793 793 793 793 793 793 792 792 792 791 792 792 793 793 794 796 799 802 804 804 805 806 807 808 809 810 811 812 814 814 816 815 814 813 813 811 811 809 809 808 808 807 807 806 807 808 809 810 811 812 814 815 815 813 812 811 810 811 812 813 813 812 811 810 808 808 809 811 815 816 816 815 814 814 813 814 814 815 814 813 814 818 818 817 818 816 815 815 816 816 815 815 815 815 815 817 818 820 821 822 821 820 821 821 820 821 823 827 828 828 829 830 831 832 834 836 837 838 839 836 834 838 843 847 851 852 855 856 858 858 858 858 858 859 861 863 865 867 868 870 871 872 873 873 874 874 873 871 870 868 868 868 868 868 868 866 865 863 861 862 864 865 867 869 872 875 876 879 881 883 885 887 887 887 886 886 885 884 883 882 880 880 879 878 878 875 873 870 868 865 862 859 855 853 853 855 861 865 865 866 869 868 868 868 867 867 866 867 866 866 865 864 863 862 860 861 860 860 860 862 863 864 864 864 862 859 857 855 854 852 850 850 851 850 848 847 847 847 847 848 848 849 850 851 852 850 847 845 843 842 840 840 839 838 838 837 837 834 831 829 828 827 824 823 827 829 830 832 833 835 836 840 843 846
876 877 877 877 877 876 876 877 876 877 878 878 879 879 880 880 880 880 881 881 881 882 882 882 882 882 881 881 881 880 880 879 879 878 878 877 877 876 876 875 875 873 872 871 870 868 867 865 864 862 861 860 859 857 855 852 850 847 846 845 843 841 838 835 833 830 827 824 822 820 818 816 817 818 820 823 824 825 825 825 825 824 824 824 825 825 825 824 824 822 822 821 820 820 819 819 818 816 815 814 813 813 813 813 813 813 813 813 813 811 810 809 808 808 809 808 807 806 807 808 807 807 808 807 805 803 804 805 805 805 805 805 805 805 805 805 805 804 804 804 805 805 805 805 804 804 804 803 803 803 802 802 802 801 801 800 800 800 800 800 801 800 800 798 797 797 798 798 799 798 797 797 796 796 796 796 796 796 796 796 796 796 795 793 792 790 791 791 792 793 793 793 793 792 792 792 792 791 791 792 792 793 793 795 797 798 801 802 802 804 804 806 807 807 809 810 811 812 813 814 813 812 811 810 810 809 808 807 806 806 806 806 806 807 808 809 810 811 811 812 813 814 813 811 810 809 809 809 810 810 809 809 809 808 809 809 810 812 814 813 813 813 812 813 814 814 815 813 812 812 816 816 816 816 814 813 813 814 814 814 814 814 814 813 816 818 820 821 821 819 818 818 819 821 824 825 828 828 829 829 830 831 832 834 836 836 838 839 836 835 840 844 848 851 853 854 856 857 858 858 858 858 859 861 863 866 868 869 870 872 873 874 874 874 872 872 870 869 868 867 867 867 868 868 866 865 863 861 863 864 863 865 867 871 874 877 879 881 883 885 887 887 887 886 886 885 884 882 881 880 879 878 878 877 874 872 869 866 862 859 855 854 854 856 858 862 866 866 868 870 871 870 870 869 869 868 868 868 868 866 865 864 863 862 862 862 862 862 863 864 865 865 863 860 858 856 855 853 851 850 850 851 851 851 849 849 849 849 849 850 851 852 852 851 848 845 844 842 841 840 839 838 837 837 836 834 832 830 830 830 829 826 824 826 829 830 831 832 834 835 838 842 846
874 874 874 874 874 874 874 875 875 876 876 877 877 878 879 880 880 881 881 881 881 882 882 882 882 882 881 881 881 880 880 879 879 878 878 877 876 876 876 875 875 873 872 870 869 868 867 866 864 863 862 860 859 858 856 855 852 849 848 846 844 842 840 837 834 832 829 826 823 821 819 817 817 819 821 823 824 824 825 824 822 821 820 822 823 823 823 822 821 820 820 818 818 818 818 818 816 815 813 813 813 813 813 813 813 813 813 813 813 812 810 809 807 808 809 808 807 806 807 808 807 807 808 807 805 803 804 805 805 805 805 805 805 805 805 805 805 804 804 804 805 805 805 805 804 804 804 803 803 803 802 802 802 801 801 800 800 800 800 799 800 801 800 798 797 797 798 798 798 797 796 795 795 795 795 795 795 795 795 796 796 795 795 793 792 790 791 791 792 793 793 793 793 792 792 792 791 791 791 792 792 793 793 795 797 797 799 801 801 802 803 804 805 807 808 809 809 810 811 813 812 810 810 808 808 807 806 805 805 805 805 805 806 807 808 809 810 811 811 812 813 812 811 810 809 807 807 807 807 808 807 808 808 808 809 810 810 811 812 811 811 811 811 813 813 814 814 813 811 811 814 814 814 813 812 811 812 812 813 813 813 813 813 813 815 817 819 820 819 819 818 820 821 824 825 827 828 828 829 829 830 831 832 834 835 836 837 837 836 836 840 845 849 851 853 854 856 857 858 858 858 858 860 862 865 867 869 870 871 873 874 873 873 872 871 870 869 867 866 866 867 867 868 868 866 865 863 861 860 859 860 863 866 869 872 875 878 881 884 885 887 887 887 886 886 885 883 882 881 880 879 878 877 876 873 870 867 865 858 855 853 857 859 860 861 864 867 868 870 872 873 873 872 872 870 871 870 869 868 867 865 864 862 862 862 863 863 863 863 863 863 863 861 859 857 855 854 852 852 851 851 851 852 852 852 851 851 851 851 852 853 852 849 847 845 843 842 840 838 838 837 836 835 834 833 833 832 832 832 832 830 827 824 826 828 830 831 831 833 834 837 842 846
872 872 872 873 873 873 873 873 874 874 875 876 876 878 879 880 880 881 882 882 882 882 882 882 882 882 882 882 881 880 880 879 879 878 877 877 876 876 875 875 874 872 871 869 867 867 866 866 864 863 862 860 859 857 856 856 854 852 850 847 844 842 840 837 835 832 830 828 825 822 819 818 816 818 819 822 823 824 824 823 823 821 819 821 822 822 821 821 819 818 817 816 816 816 815 815 815 814 813 813 814 813 813 813 813 813 813 813 813 811 810 809 807 808 808 808 807 806 807 807 807 807 808 807 805 803 804 805 805 805 805 805 805 805 805 805 805 804 804 804 805 805 805 805 804 804 803 803 803 802 802 802 802 801 801 800 800 800 800 800 800 801 800 798 797 797 798 798 797 795 795 797 797 798 797 796 796 796 796 796 796 795 795 795 794 791 791 792 792 793 793 793 792 792 792 792 792 792 792 792 792 793 793 794 796 797 797 799 800 801 802 803 804 806 807 809 808 809 810 811 810 808 808 807 806 805 804 803 803 803 804 805 806 807 808 809 810 811 811 812 811 811 810 808 807 806 806 806 806 807 807 808 808 809 810 810 810 811 810 810 810 810 810 811 812 813 814 811 809 809 811 812 811 810 810 809 810 811 811 812 812 812 812 812 814 817 818 817 816 818 819 822 824 826 826 828 828 829 829 829 830 831 832 833 834 835 836 836 836 837 841 845 848 851 852 855 856 857 857 858 858 859 861 863 866 868 870 872 872 873 873 872 872 870 870 868 868 867 866 866 867 867 868 868 866 864 862 860 856 856 859 862 864 866 869 872 876 879 883 885 887 887 887 885 885 883 883 882 881 879 878 877 876 874 871 869 866 863 856 853 856 861 863 863 864 867 871 872 873 874 874 874 874 873 872 872 872 869 868 866 865 864 862 862 862 863 862 861 861 861 861 861 860 857 856 854 853 854 853 852 852 852 852 853 853 853 853 852 853 854 852 850 847 845 843 843 842 840 837 836 835 834 833 835 834 835 835 834 834 833 831 827 824 825 828 829 830 831 833 834 837 841 845
871 871 871 872 872 872 872 872 873 873 875 875 876 878 879 880 880 881 882 882 882 882 882 882 882 882 882 882 881 881 880 879 879 878 877 877 876 875 874 874 873 871 870 868 866 866 865 865 864 863 862 860 859 857 856 856 854 853 850 847 844 842 840 837 835 833 830 828 825 823 821 819 817 816 818 821 822 824 824 823 823 822 820 821 820 820 820 819 818 816 815 814 814 815 814 814 814 814 814 814 814 814 813 813 813 813 813 813 813 811 810 809 808 809 808 807 807 806 806 807 807 807 809 807 805 803 804 805 805 805 805 805 806 806 806 805 805 804 804 804 805 805 805 805 804 804 803 803 803 802 802 802 802 801 801 800 800 800 800 800 801 800 800 798 797 797 797 797 797 797 797 798 799 799 798 797 797 797 797 797 797 796 796 795 795 794 792 791 792 793 793 793 792 792 792 792 792 792 792 792 792 793 793 793 794 795 796 797 798 799 801 802 804 805 806 808 808 808 809 809 808 807 805 805 804 803 803 802 802 803 804 804 805 806 807 809 810 810 810 810 810 809 808 807 805 805 805 805 806 806 807 807 808 810 810 810 810 810 810 809 808 808 809 809 811 811 812 810 807 807 810 811 810 809 808 808 808 809 810 810 810 810 811 811 813 816 817 818 817 820 821 823 824 826 827 828 829 829 830 830 830 830 831 832 832 835 835 836 836 837 841 845 848 851 852 854 855 857 857 859 859 859 862 864 866 869 871 871 871 871 871 871 870 869 868 867 867 867 867 867 867 867 868 868 866 863 860 857 854 856 858 861 863 864 867 870 873 877 880 884 887 886 885 885 883 882 881 880 880 878 877 874 873 871 869 867 864 861 855 856 859 862 865 866 869 873 875 875 874 874 874 874 874 874 873 873 871 869 868 866 865 864 862 862 862 862 860 860 859 859 859 859 858 856 855 853 853 853 853 853 853 853 853 854 854 854 854 854 852 852 850 847 845 843 841 839 838 837 835 834 834 833 834 835 836 838 837 836 835 834 831 827 824 824 827 828 829 831 832 834 837 840 845
870 870 870 870 870 870 871 872 872 873 875 875 876 878 879 880 880 880 881 881 881 881 881 881 881 882 882 882 881 880 880 879 879 878 877 876 875 874 874 873 872 871 868 867 866 866 865 865 864 863 862 860 859 857 856 856 854 853 850 847 844 842 840 837 835 832 830 828 825 823 822 820 818 816 817 819 821 822 822 821 821 821 820 820 819 819 818 818 816 815 814 814 814 814 814 814 814 814 814 814 814 814 813 813 813 813 813 813 813 811 811 810 809 809 807 807 806 805 806 806 807 807 809 808 805 803 804 805 805 805 805 805 806 806 806 805 805 804 804 804 805 805 805 805 804 804 803 803 803 802 802 802 802 802 802 801 801 801 801 801 801 801 800 799 798 797 798 798 798 800 800 800 801 800 799 798 797 797 797 797 797 798 796 796 795 796 794 791 792 792 792 793 792 792 792 792 792 792 792 792 792 792 793 793 794 794 795 796 797 799 800 801 803 804 806 807 807 807 808 808 807 805 804 803 802 801 802 802 802 803 804 803 803 804 806 807 809 808 808 808 808 807 806 805 804 803 804 805 805 805 805 807 808 809 810 810 809 809 809 809 808 807 807 807 809 810 810 808 805 807 810 810 809 808 807 807 807 808 809 809 810 809 809 810 813 816 817 818 819 821 822 824 825 826 827 828 829 829 830 830 830 830 830 830 832 835 835 836 836 837 841 845 848 851 852 853 855 856 858 859 860 860 862 865 867 870 871 870 870 870 870 869 868 867 867 867 867 867 867 867 868 868 868 867 864 860 857 855 853 856 858 861 863 864 866 867 871 874 878 881 884 884 884 883 881 881 880 878 877 876 874 873 871 869 867 864 864 862 862 860 861 865 869 868 869 873 875 875 874 874 874 874 873 873 873 872 871 869 868 867 865 864 862 861 861 860 859 859 858 858 858 858 857 856 854 853 853 852 852 853 853 853 854 854 854 855 854 852 850 848 847 845 843 840 838 836 836 835 834 835 834 835 836 837 838 839 838 837 836 834 832 827 824 824 826 827 829 830 831 833 836 839 845
869 869 869 869 869 869 870 872 872 873 875 875 876 878 879 879 880 880 881 881 881 881 881 881 881 881 881 881 881 880 880 879 878 877 876 876 875 873 873 872 871 870 868 867 866 866 865 865 864 863 862 860 859 857 856 856 854 853 850 847 844 842 840 837 834 832 829 827 824 822 823 821 819 817 816 817 819 818 819 819 819 819 818 818 817 817 817 816 815 815 814 814 814 814 814 814 814 814 814 814 814 814 813 813 813 813 813 813 813 812 811 810 809 809 807 807 806 805 806 806 807 807 808 808 806 805 805 805 805 805 805 805 806 806 806 805 805 804 804 804 805 805 805 805 804 804 803 803 803 802 802 802 803 803 802 802 801 801 801 801 801 801 800 801 799 799 800 800 801 802 801 801 801 801 800 799 798 798 798 798 798 798 797 797 796 796 796 794 792 791 791 792 792 792 792 792 792 792 792 792 792 792 792 793 793 794 794 795 796 798 799 801 802 804 804 805 805 805 806 806 805 804 802 801 801 801 802 802 802 803 803 802 801 803 804 806 807 807 806 807 806 806 805 804 803 802 802 803 804 805 805 806 807 809 809 810 809 809 808 808 807 807 807 807 808 808 809 807 805 807 809 809 807 806 806 806 807 807 807 807 808 808 809 811 813 816 817 819 820 822 823 824 825 826 827 828 829 829 829 829 829 829 829 830 833 835 835 835 835 837 841 844 848 850 852 853 855 856 858 858 859 861 862 865 868 871 871 870 869 868 868 867 865 864 867 868 869 869 870 872 871 869 867 864 861 858 854 853 854 857 858 861 863 865 865 866 868 872 875 878 880 880 880 880 880 880 878 876 874 873 872 871 869 868 868 866 865 864 864 864 865 870 873 872 871 873 875 875 874 874 874 874 873 873 872 872 870 869 868 866 865 864 862 861 860 859 858 857 857 857 856 856 856 854 853 852 852 852 852 853 854 854 855 855 855 855 852 849 846 846 844 842 840 839 836 835 836 837 836 836 835 836 836 838 839 839 838 838 836 835 832 828 824 824 825 827 828 830 831 833 834 838 842
868 868 869 868 868 868 869 871 872 873 875 875 877 878 879 879 880 880 881 881 881 881 881 881 881 881 881 881 881 880 879 878 877 876 876 875 874 873 872 871 870 869 868 867 866 866 865 865 864 863 862 860 859 857 856 856 854 853 850 847 844 841 839 836 834 831 829 827 824 822 822 822 820 817 815 815 817 816 817 816 816 816 816 816 815 815 815 815 815 815 814 814 814 814 814 814 814 814 814 813 813 813 813 813 813 813 812 812 812 812 811 810 809 809 807 807 806 806 806 806 807 807 808 809 807 806 805 806 805 805 805 805 806 806 806 805 805 804 804 804 805 805 805 805 804 804 803 803 803 803 803 804 805 805 803 802 801 802 802 801 801 801 801 801 800 800 801 802 802 802 802 802 802 801 801 800 799 799 799 799 799 799 798 797 797 797 796 796 794 793 790 791 791 792 792 792 792 792 792 792 792 792 792 792 793 793 794 795 796 797 798 800 801 802 802 804 803 804 805 805 803 802 801 800 800 801 801 802 802 803 802 801 800 802 803 805 806 806 805 805 805 805 804 803 803 801 801 801 803 804 804 805 805 807 808 808 808 809 808 807 807 807 807 807 807 807 807 805 805 805 807 807 806 806 805 805 806 806 806 806 806 807 809 812 814 816 819 821 821 822 823 824 826 826 827 830 830 830 829 829 829 829 828 830 833 835 835 835 835 836 841 844 847 850 851 853 854 855 857 858 860 861 863 866 868 871 872 871 870 867 864 861 861 863 866 868 869 871 872 871 869 867 865 862 859 855 853 855 856 857 859 861 863 864 865 866 867 869 871 873 876 876 877 877 877 877 875 874 873 871 870 868 867 866 867 867 867 866 866 866 867 873 875 875 874 874 875 875 874 873 873 873 872 872 871 871 869 868 867 865 865 864 862 861 859 858 857 856 856 856 855 855 854 853 852 851 851 852 853 853 854 855 855 856 855 852 849 846 844 843 842 840 837 836 835 837 838 838 838 838 837 837 838 838 839 840 839 838 837 836 833 828 824 823 824 826 827 830 831 832 834 835 837
867 867 867 867 867 867 868 870 871 873 875 875 877 878 879 879 879 880 880 880 880 880 880 880 880 881 881 881 880 879 878 877 876 875 875 873 873 872 871 870 869 869 868 867 866 866 865 865 864 863 862 860 859 857 856 856 854 853 850 847 844 840 839 836 833 831 829 826 824 823 822 822 820 817 816 816 815 815 815 815 815 815 815 815 815 814 815 814 814 814 814 814 814 814 814 814 814 813 813 813 813 813 813 813 813 813 812 812 812 812 811 811 810 809 808 807 806 806 806 806 807 807 807 809 808 807 806 806 806 805 805 805 806 806 806 805 805 804 804 804 805 805 805 805 804 804 803 804 804 804 804 805 806 805 802 801 801 802 802 802 802 802 802 802 802 802 803 803 803 803 803 803 803 802 802 801 801 801 800 800 800 799 799 798 798 797 797 797 796 795 792 790 791 791 791 792 793 793 792 792 792 792 792 792 792 793 793 795 795 796 798 799 799 800 801 801 802 802 803 803 802 801 800 799 799 800 800 802 802 801 800 800 800 801 802 803 804 804 804 804 803 803 802 802 802 801 801 801 802 803 803 804 805 806 807 806 807 808 808 807 807 807 806 806 807 807 806 804 805 805 806 805 805 805 805 805 805 806 806 806 808 809 810 813 816 819 820 823 824 824 825 825 826 828 829 831 831 831 830 830 829 828 827 829 833 834 834 834 834 836 840 843 847 849 851 853 854 855 857 858 859 861 864 866 869 872 873 870 867 864 860 859 861 864 866 868 869 870 871 869 867 865 863 860 857 853 855 858 858 860 861 862 863 863 864 865 866 868 869 870 872 872 874 874 874 873 872 872 871 869 868 866 864 863 865 866 868 869 868 868 870 874 875 875 875 875 874 874 873 873 872 872 871 871 870 870 868 867 866 864 863 863 861 860 860 858 857 855 855 854 853 853 852 852 851 851 851 853 854 854 855 855 855 853 851 849 846 843 841 840 839 837 836 837 837 838 839 840 839 839 839 839 838 839 839 840 839 838 837 836 833 828 825 824 824 826 827 829 830 831 833 834 836
866 866 865 866 866 866 867 868 870 873 875 875 877 878 879 879 879 879 879 879 879 879 879 879 879 880 880 880 879 878 877 876 875 874 874 872 872 871 870 869 869 868 867 866 866 865 865 865 864 863 862 860 859 857 856 856 854 852 849 846 844 841 838 835 833 830 828 827 825 824 823 822 820 817 816 816 815 815 814 814 814 814 814 815 815 814 815 814 814 814 814 814 814 814 814 814 814 813 813 813 813 813 812 812 812 812 812 812 812 811 811 811 810 809 808 807 807 806 806 806 806 807 807 808 809 808 807 807 806 806 805 805 806 806 806 805 805 804 804 804 805 805 805 805 804 804 804 803 804 804 805 806 806 804 802 801 802 802 802 803 802 802 802 802 803 803 803 804 804 804 804 804 804 803 803 802 802 802 801 801 801 800 800 799 799 798 798 797 796 796 793 790 791 791 791 792 792 793 793 793 792 792 792 792 792 793 793 794 794 795 796 797 797 798 799 799 800 800 801 801 800 800 799 799 799 799 800 801 801 800 800 799 799 800 801 802 803 803 803 803 802 802 801 801 800 801 801 802 802 803 804 804 805 805 805 805 806 806 806 806 806 806 806 806 806 806 806 805 805 805 803 804 804 805 805 805 805 806 808 808 809 811 812 815 816 819 822 824 826 825 825 825 826 829 830 832 832 831 829 826 825 825 827 829 832 833 833 833 833 835 839 842 846 849 851 852 853 855 857 858 860 861 864 867 869 871 870 866 862 860 859 861 863 865 868 869 869 869 870 869 866 864 861 858 854 853 857 860 861 862 862 862 862 862 863 864 865 867 868 868 869 869 870 870 870 870 869 868 868 867 865 864 863 862 863 864 867 870 870 871 871 874 875 875 875 874 874 873 873 872 871 871 870 870 870 868 867 866 865 864 862 862 860 860 859 857 857 855 854 854 853 852 852 852 851 851 851 853 854 854 854 853 851 849 848 846 844 841 838 838 838 838 839 839 840 840 841 841 842 842 842 842 838 840 840 840 839 838 837 836 833 828 825 824 824 825 827 828 829 831 832 834 836
864 864 864 865 865 865 866 867 870 873 875 875 877 878 879 879 878 878 878 878 878 878 878 877 877 877 878 877 877 876 875 875 874 873 872 872 871 870 869 868 868 867 867 866 866 866 865 865 864 863 862 860 859 857 856 855 854 851 848 846 843 839 837 834 832 830 828 827 826 824 823 821 820 817 816 816 815 815 814 814 814 814 814 814 814 814 814 813 813 813 813 813 814 814 814 814 814 813 813 812 812 812 811 811 811 811 811 811 811 811 809 809 807 807 806 806 806 806 806 806 806 806 807 808 809 808 808 807 807 806 806 805 805 806 806 805 805 804 804 804 805 805 805 805 804 804 804 804 804 805 805 805 805 804 803 802 802 802 803 803 803 803 803 803 803 803 804 804 805 805 805 805 805 805 805 804 804 803 803 802 802 802 800 800 799 799 798 799 798 797 795 792 790 790 791 791 792 792 793 793 793 792 792 792 792 793 793 793 793 794 795 796 796 797 798 798 798 799 799 800 799 798 798 797 798 799 799 801 801 799 799 798 798 799 800 801 802 802 802 801 801 800 800 799 799 800 801 802 803 804 804 804 804 804 804 804 804 804 804 804 805 806 805 805 805 805 804 804 805 804 804 804 804 804 804 805 806 807 808 809 811 813 813 816 818 821 823 825 826 825 825 824 825 828 831 832 830 827 824 821 822 824 827 829 831 832 831 831 831 834 837 841 845 848 850 851 853 854 856 858 860 862 863 865 866 867 865 861 858 859 862 864 866 868 869 869 869 868 869 868 865 862 858 855 852 855 859 862 862 862 862 861 862 862 863 863 864 865 865 865 865 866 866 867 867 867 866 865 865 863 862 861 860 860 862 865 868 871 872 873 874 875 876 875 874 874 873 872 872 871 871 871 870 870 869 868 867 865 863 863 861 861 860 859 858 857 856 855 854 854 852 852 852 851 851 851 851 852 853 853 852 850 848 846 844 843 840 839 838 838 839 840 841 841 842 842 844 844 845 845 845 845 840 840 840 840 839 838 837 837 833 830 826 824 824 825 826 827 829 830 831 833 834
862 862 862 863 863 864 865 868 870 873 875 875 876 877 878 878 877 877 877 877 877 877 876 875 875 875 875 875 874 874 874 874 873 873 871 871 870 869 868 868 868 867 867 866 866 866 865 865 864 863 862 860 858 857 856 854 853 850 848 844 841 838 836 833 831 828 827 826 825 824 822 821 820 817 816 816 815 815 815 815 814 814 814 813 813 813 813 812 812 811 811 812 812 813 814 814 813 813 812 812 811 811 812 812 812 812 811 811 811 810 809 807 805 805 806 806 806 806 806 806 806 806 807 807 808 808 808 808 807 807 806 806 805 805 805 805 805 804 804 804 805 805 805 805 805 804 804 804 805 805 805 805 805 804 803 802 802 802 803 803 803 803 803 804 803 804 804 805 805 805 805 805 805 805 805 805 805 804 804 803 803 802 801 801 800 800 800 801 801 798 797 795 791 791 790 791 791 791 792 792 793 793 793 792 792 792 792 792 793 793 793 794 795 796 796 796 797 797 798 798 797 797 796 796 796 797 798 799 799 797 797 797 797 798 799 800 801 801 800 800 800 799 799 798 798 799 801 802 803 803 803 803 803 803 803 803 803 803 804 804 805 806 805 805 805 804 803 803 805 805 804 804 804 804 804 805 806 808 808 810 812 814 815 816 819 822 823 825 825 825 824 824 825 828 830 830 826 822 819 818 822 824 827 829 831 831 830 830 829 832 837 840 844 847 849 850 852 854 856 858 859 861 861 860 860 862 860 857 858 862 865 867 868 868 869 868 868 868 868 866 862 859 855 852 853 856 860 862 862 862 861 861 861 862 862 863 863 862 861 862 862 862 864 864 865 864 863 862 862 861 859 859 859 860 863 867 870 872 873 874 875 875 876 874 874 873 873 872 871 871 870 870 870 870 869 868 867 865 862 861 861 860 859 858 858 857 856 855 854 853 852 852 851 851 851 851 851 850 851 852 851 848 845 843 841 839 839 839 840 840 841 843 843 844 845 846 847 847 848 848 847 846 841 841 841 841 840 840 838 838 834 831 826 825 825 825 825 826 828 829 830 831 832
861 861 862 862 863 863 865 868 870 873 874 875 876 876 876 876 876 876 876 876 875 874 873 873 873 873 873 872 872 872 872 872 872 871 871 870 869 868 868 868 867 867 867 866 866 865 865 865 864 863 861 859 857 856 855 853 852 849 846 843 839 836 833 832 830 827 826 825 824 823 822 820 819 818 816 816 816 815 815 815 815 814 814 814 813 812 813 812 811 811 811 811 811 812 813 813 813 812 812 812 812 812 812 813 813 813 812 812 812 810 808 807 805 805 806 806 806 807 807 806 806 806 806 807 807 808 808 808 807 807 807 807 806 805 805 805 805 805 804 804 805 805 805 805 805 804 804 804 805 805 805 805 804 804 803 801 802 803 803 804 804 804 804 804 804 804 805 806 806 806 806 806 806 806 806 806 806 806 805 804 804 803 803 802 801 802 803 803 804 799 798 797 796 796 794 790 790 791 791 791 792 792 792 791 792 792 792 792 792 792 792 793 793 794 794 795 795 796 797 797 796 796 794 795 795 796 796 797 798 796 796 796 796 798 798 800 801 800 799 799 799 798 797 797 796 798 800 801 803 803 802 803 802 802 802 802 803 803 804 805 805 807 806 805 804 803 802 803 804 805 804 804 804 804 804 805 806 808 809 811 812 814 816 817 819 821 823 825 825 825 824 823 825 827 828 826 822 819 818 820 822 824 826 828 829 829 829 828 828 831 835 839 843 846 848 850 851 854 855 856 858 859 857 856 856 856 854 857 861 864 866 867 867 868 868 868 867 866 866 863 859 856 852 853 854 857 860 862 862 862 861 861 861 862 862 863 862 862 861 861 860 860 861 862 862 861 861 859 859 859 858 859 859 861 863 868 870 873 873 874 874 874 874 874 874 873 873 872 871 870 870 870 870 870 870 868 866 864 861 860 859 859 858 858 857 856 856 854 854 853 852 852 851 851 851 851 851 850 850 850 849 846 843 841 839 839 839 840 841 842 843 844 844 846 847 849 849 850 850 850 847 840 840 841 842 842 842 840 840 838 836 832 828 824 824 825 825 825 826 827 828 829 831
861 861 861 862 862 863 865 867 870 872 873 873 874 874 874 874 875 875 875 875 874 872 871 870 870 870 870 870 871 871 871 871 870 870 870 869 869 868 868 868 867 867 867 866 865 865 865 864 864 862 860 858 856 854 853 851 851 848 844 841 837 833 832 830 828 826 825 824 824 821 820 819 817 817 816 816 816 816 815 815 815 815 815 814 813 812 812 811 811 811 811 811 811 811 812 812 812 811 812 813 813 813 812 813 813 813 812 812 812 810 808 807 805 805 806 806 807 807 807 806 806 806 806 807 807 808 808 808 807 807 807 807 806 806 806 805 805 805 805 805 805 805 805 805 805 805 805 805 805 805 805 805 805 804 803 802 803 804 805 805 805 805 805 804 804 805 806 806 807 807 807 807 807 807 807 808 808 807 806 806 805 805 804 803 803 803 805 807 806 800 799 799 797 796 796 795 792 791 790 790 791 791 791 791 791 792 792 793 793 792 792 792 792 793 793 794 794 795 795 795 795 794 793 794 794 795 796 795 796 796 796 796 796 797 798 798 799 799 799 799 799 798 797 796 796 797 799 801 802 802 802 802 802 802 802 802 802 803 804 805 806 806 806 804 803 803 803 804 804 805 805 805 805 805 806 806 807 809 810 811 813 814 815 816 818 821 823 825 825 825 824 824 826 826 825 823 820 817 819 820 822 823 825 826 828 828 827 827 826 829 833 838 842 845 847 848 850 851 852 855 856 858 854 852 852 857 859 859 863 866 868 868 868 868 867 867 865 864 863 859 856 852 854 856 856 858 859 863 862 862 862 861 861 862 862 863 862 862 861 861 859 858 859 859 860 859 858 857 857 858 858 859 859 861 864 867 870 871 872 873 872 873 873 873 873 873 872 871 871 870 870 870 870 870 869 867 864 862 859 858 858 857 857 857 857 856 856 854 854 853 852 851 851 851 851 851 851 850 850 849 848 846 843 841 839 839 841 841 842 843 844 844 845 846 848 850 851 853 850 846 842 843 843 843 844 844 843 841 841 839 837 832 829 825 824 826 826 825 825 826 826 828 829
861 861 861 862 862 862 864 866 869 870 872 872 873 873 873 873 874 874 875 874 872 871 869 869 869 869 869 869 869 869 869 869 869 868 868 867 867 867 868 867 867 866 865 865 863 863 862 862 862 860 858 856 855 854 851 849 847 844 841 838 835 832 830 828 827 825 824 823 822 820 818 817 816 816 816 816 816 816 816 816 815 815 815 814 814 812 812 811 811 811 811 811 811 811 811 811 811 811 812 814 814 813 812 813 813 813 812 812 812 810 808 807 805 805 806 806 807 807 807 806 806 806 806 807 807 807 808 808 808 807 807 807 807 807 807 806 806 805 805 806 806 806 806 806 806 805 805 805 805 805 805 805 805 804 804 803 804 805 806 807 807 806 805 805 805 806 806 807 808 808 808 808 808 808 809 809 809 808 808 807 806 806 805 805 804 804 806 808 807 803 802 799 797 797 796 794 794 792 791 791 791 790 790 790 791 791 792 793 793 792 792 792 792 792 793 793 793 793 793 793 793 793 793 793 793 793 793 793 793 794 794 794 795 796 796 796 796 797 797 798 798 797 797 796 796 796 798 800 801 801 801 801 801 801 802 802 802 803 804 805 806 806 805 804 804 804 804 804 805 805 805 806 806 807 807 808 809 810 811 811 812 813 814 815 817 820 822 824 824 825 824 824 824 824 822 820 818 817 819 820 822 823 825 826 827 827 826 825 825 827 832 837 841 844 845 846 848 849 851 853 854 856 852 849 850 857 862 861 864 867 869 869 868 867 866 864 863 862 860 856 853 852 858 859 859 860 861 863 862 862 862 861 861 862 862 863 862 862 862 861 859 857 857 857 857 856 856 855 856 857 858 859 859 861 863 866 868 870 870 871 871 872 872 872 872 872 872 871 870 869 869 869 868 868 867 865 862 859 857 856 856 856 857 857 856 856 856 854 854 853 852 851 851 851 851 851 850 849 847 846 846 843 841 842 845 845 845 844 843 844 844 845 845 847 848 851 853 855 855 852 846 847 847 847 846 845 843 843 842 840 838 834 830 827 825 825 826 826 825 825 826 826 827
861 861 861 861 862 861 862 865 867 869 870 871 871 871 871 872 873 874 874 873 871 870 867 866 867 867 867 867 867 867 867 867 867 866 866 867 867 867 867 867 866 864 863 862 862 861 860 860 859 857 856 854 852 850 848 845 843 840 837 834 832 830 829 827 825 824 823 822 820 818 817 817 816 816 816 816 816 816 816 816 815 815 815 815 814 813 811 811 811 811 811 811 811 811 811 811 811 812 812 814 814 813 813 813 813 813 812 812 812 810 808 806 805 805 806 806 807 807 807 806 806 806 807 808 807 807 807 808 807 807 807 807 809 809 808 808 806 806 806 807 808 808 807 806 806 806 806 806 806 805 805 805 805 804 804 804 805 805 807 808 807 807 805 805 805 806 807 808 809 809 809 809 809 810 810 810 810 809 809 807 807 806 805 806 804 805 807 809 807 805 805 801 800 797 797 796 797 795 794 793 792 791 790 790 791 791 793 793 793 793 793 793 792 792 792 792 792 792 792 792 792 792 792 792 792 792 790 790 790 791 792 792 793 793 794 794 794 794 794 795 796 797 797 796 796 796 798 799 799 800 801 801 802 802 803 803 803 803 803 804 805 805 805 804 805 805 805 805 805 806 806 806 807 807 808 809 809 811 811 812 812 812 813 814 816 818 820 821 822 823 822 822 821 821 820 818 817 817 818 820 821 823 824 824 825 825 824 823 823 826 830 835 840 842 843 845 846 847 849 851 852 852 848 847 851 856 861 864 865 867 869 869 867 865 863 862 860 859 858 853 852 856 860 861 861 862 863 863 862 862 862 861 861 862 862 863 863 862 861 861 859 857 855 855 854 854 854 854 855 856 857 858 859 860 862 865 867 868 869 869 870 871 871 872 872 872 872 871 870 868 867 866 865 865 863 862 859 858 855 855 855 856 856 856 856 856 855 854 854 853 852 851 851 851 851 851 849 847 846 844 845 843 842 845 848 849 847 846 845 845 845 845 845 847 849 853 854 857 860 857 852 850 850 849 848 846 845 844 843 841 839 836 832 829 826 825 826 826 825 825 826 826 826
861 860 860 860 860 860 861 864 865 868 869 869 869 868 868 869 872 873 873 872 869 867 864 864 865 865 866 866 866 866 866 866 865 865 865 867 868 867 867 866 866 863 862 861 859 859 858 857 856 854 853 851 848 845 843 841 838 836 833 831 830 828 827 826 825 823 822 820 819 817 817 817 816 816 816 816 816 816 815 816 816 816 815 816 814 813 811 811 811 811 811 811 811 811 811 811 812 812 813 814 814 813 813 813 813 813 812 812 812 810 808 807 805 805 806 806 807 807 807 806 806 807 808 808 808 808 808 808 807 807 809 809 810 810 809 809 809 808 808 809 810 810 809 807 807 807 806 806 806 806 806 806 805 804 804 804 806 807 808 809 808 807 806 805 805 806 808 810 810 810 810 809 810 810 810 810 811 810 809 808 807 806 806 806 805 806 808 809 807 805 807 806 805 800 800 802 801 799 797 795 794 793 791 791 790 791 792 793 793 793 793 792 792 791 791 792 792 792 793 793 793 793 793 793 791 791 791 791 791 791 790 790 790 790 790 790 791 791 791 792 794 794 795 796 796 796 796 797 798 800 801 802 803 803 803 803 803 803 803 803 804 804 804 804 804 805 805 806 806 806 807 807 808 808 808 809 810 811 812 812 813 813 813 813 814 816 818 819 818 819 819 819 818 818 818 818 817 818 818 819 820 821 821 821 823 824 823 822 820 823 829 833 838 840 842 843 845 845 847 848 848 846 844 850 854 857 860 863 865 867 867 866 864 862 861 859 858 855 853 852 855 857 861 862 863 863 863 863 862 862 862 861 861 862 862 863 863 862 862 861 860 857 854 854 854 854 854 855 856 858 858 859 859 860 862 863 865 866 868 868 869 870 870 871 872 872 871 870 868 866 864 863 862 861 860 858 857 856 854 854 854 855 856 856 856 856 855 854 854 852 852 851 851 851 851 851 849 848 847 846 846 845 844 846 849 849 849 848 847 847 847 847 848 849 852 854 856 859 861 858 855 852 851 850 849 848 846 845 844 843 841 838 835 832 829 826 825 825 826 826 825 825 825
860 860 859 859 859 859 861 863 864 865 865 866 866 865 865 867 869 871 872 869 867 864 862 861 863 863 864 863 865 865 865 865 864 863 864 867 867 867 867 866 865 863 861 859 857 856 855 855 853 851 849 846 843 841 839 836 834 833 831 830 828 827 826 825 824 822 822 820 818 817 817 816 816 816 816 816 815 815 815 815 815 816 816 816 815 813 811 811 811 811 811 811 811 811 811 811 812 812 813 814 814 813 813 813 813 813 812 812 812 810 808 806 805 805 806 806 807 807 807 807 807 807 808 807 807 807 807 807 807 807 809 811 810 811 811 811 811 809 808 809 809 809 809 809 807 807 806 806 806 807 806 806 806 805 805 805 807 808 810 811 810 808 807 805 806 807 809 811 812 811 811 810 811 811 811 811 812 811 810 809 808 807 807 807 806 807 809 808 806 805 808 810 810 809 806 807 806 804 802 799 796 795 795 793 792 790 792 792 792 792 792 792 791 791 791 791 792 792 792 792 793 794 794 793 792 790 791 792 792 792 791 791 791 790 791 793 793 792 791 790 792 793 793 795 796 794 794 796 797 799 800 801 803 804 803 803 803 803 803 803 804 804 804 804 804 805 805 806 806 806 807 807 808 808 809 809 810 811 812 813 813 813 813 813 813 814 816 817 816 817 817 817 817 817 818 819 819 819 820 820 819 819 818 819 822 822 822 820 819 822 827 831 837 839 840 841 842 843 843 843 841 844 848 851 855 859 860 860 862 864 864 862 861 860 858 857 854 852 852 855 857 859 862 863 863 863 863 863 862 862 862 861 861 862 862 863 863 862 862 861 860 857 855 854 854 854 854 856 857 858 858 859 859 860 862 863 865 866 867 867 869 869 870 871 871 872 870 868 865 864 862 861 859 858 857 856 855 855 853 854 854 855 856 856 855 855 855 854 854 852 852 851 851 851 851 851 850 849 849 849 848 847 846 846 849 849 850 850 848 848 849 850 851 852 855 856 859 861 861 859 857 855 853 852 850 848 848 848 847 847 844 841 838 835 831 829 828 825 826 826 825 825 825
859 859 858 858 858 858 858 860 861 862 862 862 862 863 862 864 865 867 868 866 864 861 859 859 860 861 861 861 862 863 864 864 862 861 863 864 866 866 866 866 864 863 859 856 853 853 853 851 850 847 844 842 839 837 836 834 832 831 829 828 827 825 824 823 822 821 821 820 818 817 816 816 816 816 816 815 814 814 814 814 814 815 816 816 814 814 811 811 811 811 811 811 811 811 811 811 812 812 814 814 814 813 813 813 813 813 812 812 812 809 808 806 805 805 806 806 807 807 807 807 807 808 808 807 806 806 807 807 807 808 808 810 809 810 810 810 811 809 808 808 807 807 808 809 807 807 806 806 807 807 807 807 807 806 805 806 807 809 811 812 811 810 808 806 807 809 810 812 813 813 812 812 812 812 812 813 813 811 811 810 808 808 808 807 807 808 809 808 806 806 809 809 808 808 808 809 809 809 807 805 803 799 796 795 793 790 791 791 791 791 791 791 790 790 790 791 791 791 792 792 792 793 794 795 792 790 791 793 793 793 793 792 792 792 793 794 794 792 791 791 792 792 791 792 793 791 792 794 796 797 798 800 802 804 803 803 803 802 803 803 803 803 804 804 804 804 805 805 806 807 807 807 808 808 809 810 810 812 812 813 813 813 814 814 814 814 814 816 818 820 820 820 820 821 821 822 822 822 822 822 820 818 815 817 821 821 820 820 820 822 826 829 834 837 839 839 839 841 841 842 844 848 852 855 856 858 859 859 860 860 862 859 858 857 856 854 852 850 854 857 859 861 862 863 863 863 863 863 862 862 861 861 861 862 862 863 863 862 863 861 861 858 856 855 855 855 855 856 858 858 859 859 859 860 862 863 865 866 866 867 868 868 869 870 871 871 869 867 864 862 860 859 858 856 855 855 854 854 853 854 855 855 856 856 855 855 854 854 853 852 852 852 852 852 852 852 850 850 850 849 849 849 848 847 849 849 850 850 851 852 853 854 855 857 858 861 861 861 861 861 859 857 855 854 852 851 851 850 849 849 847 844 840 837 835 833 831 829 828 827 825 825 826
859 858 855 855 855 855 855 855 857 858 859 859 859 859 859 860 861 863 864 863 860 857 856 857 858 859 859 859 858 859 862 863 860 860 860 862 863 863 864 864 863 859 856 853 851 850 849 848 847 844 841 838 836 835 833 832 829 828 828 826 825 824 822 821 820 819 818 819 818 816 816 816 815 814 814 813 813 813 814 814 814 815 815 815 814 813 811 811 811 811 811 811 811 811 811 811 812 812 814 814 814 813 813 813 813 813 812 812 812 809 808 806 805 805 806 807 808 808 808 808 808 808 808 807 806 806 807 807 807 808 808 808 808 809 809 807 809 807 807 807 807 807 807 807 807 807 806 806 807 807 808 808 807 807 806 807 808 810 812 813 812 811 809 808 808 810 812 813 814 814 813 813 813 813 813 814 814 812 811 810 808 808 808 808 808 808 809 808 807 807 809 808 806 806 807 808 810 811 810 809 808 803 799 799 797 793 790 790 790 790 790 791 791 790 791 791 790 791 791 792 791 792 793 793 791 791 792 793 793 793 793 793 793 793 793 793 793 792 792 792 793 792 790 790 790 789 790 792 794 795 797 799 801 802 803 803 802 802 802 803 802 802 802 803 803 804 804 805 806 808 808 808 808 809 809 810 810 812 813 813 814 814 814 814 814 816 816 817 820 821 822 824 823 823 824 824 824 824 824 823 822 819 818 816 817 821 821 820 820 822 826 830 833 834 836 835 835 837 839 843 847 851 853 855 856 857 857 858 858 858 859 857 856 856 855 852 851 853 857 859 860 862 862 863 863 863 863 863 862 862 861 861 861 862 862 863 863 863 863 862 862 859 858 858 856 857 856 856 859 859 859 859 859 860 862 863 865 866 866 867 867 868 868 869 870 870 868 866 863 860 859 857 857 856 854 854 854 853 855 855 855 855 856 856 855 855 854 854 853 853 853 853 853 853 852 852 851 850 850 849 849 849 849 849 850 851 852 853 854 856 857 858 858 861 861 862 862 862 862 861 861 859 858 857 856 855 854 853 852 851 849 846 843 840 837 836 834 832 831 830 827 826 825
858 857 854 854 853 852 852 853 854 854 855 855 855 855 855 857 857 859 860 858 856 855 853 854 854 856 857 857 856 855 855 855 856 857 858 860 861 861 862 863 860 857 854 850 848 847 846 845 843 840 838 835 833 832 831 830 828 826 825 824 823 821 820 818 818 817 815 816 817 816 815 814 813 813 813 813 813 813 814 814 814 815 815 814 814 813 811 811 811 811 811 811 811 811 811 811 812 812 814 814 814 813 813 813 813 813 812 812 812 809 808 807 805 806 807 808 809 809 808 809 809 809 808 808 808 808 808 808 808 808 808 811 812 812 812 812 812 809 807 807 807 807 807 807 807 806 806 807 807 808 809 809 808 808 807 807 809 810 813 814 813 812 810 809 810 811 813 814 815 815 815 814 814 814 814 814 814 813 811 810 808 808 808 808 809 809 809 809 809 808 809 806 805 805 806 808 810 811 812 811 810 808 805 805 803 799 795 793 792 791 791 792 792 792 792 791 790 791 791 791 791 792 792 790 790 792 793 794 794 794 794 794 794 793 793 793 793 792 792 793 793 792 791 790 790 790 789 789 791 794 796 798 799 801 801 801 801 802 802 801 801 801 801 801 803 804 805 807 807 809 809 809 810 810 809 810 811 812 813 813 814 814 814 815 816 817 818 819 821 823 825 826 826 827 827 827 826 825 825 824 823 821 819 817 815 818 820 821 820 822 826 829 831 832 832 833 833 833 837 842 846 850 851 853 855 855 856 856 856 857 857 857 856 855 853 850 851 855 858 859 860 862 862 863 863 863 863 863 862 862 861 860 861 862 862 862 863 863 863 863 862 861 860 858 857 858 858 858 859 859 859 860 861 862 862 863 865 866 866 867 867 867 867 868 869 869 868 865 862 860 857 856 855 854 853 854 853 853 854 855 855 855 856 856 855 855 854 854 854 854 854 854 854 854 852 852 851 850 849 849 848 849 849 849 851 853 855 856 857 859 860 861 862 863 863 862 863 863 863 862 862 861 860 860 859 858 856 855 854 852 850 848 845 842 840 839 837 836 834 833 831 829 826
857 856 855 852 849 848 849 849 850 851 852 852 852 852 852 853 854 855 856 854 853 852 851 851 852 853 854 853 853 852 851 851 853 854 856 858 858 859 860 860 859 855 852 848 845 844 843 841 840 836 835 832 830 830 828 827 826 824 823 821 821 819 817 816 816 814 813 813 814 814 813 812 813 814 815 814 813 813 814 815 815 815 815 814 813 813 811 811 811 811 811 811 811 811 811 811 812 812 814 814 814 814 814 814 814 813 812 812 812 810 809 807 807 807 808 809 809 810 811 812 812 811 809 808 807 807 808 808 808 807 808 810 812 812 812 812 811 810 809 808 808 808 808 808 807 807 807 807 808 809 810 810 809 809 807 807 810 811 814 815 814 812 811 810 811 812 814 815 816 816 815 814 815 814 815 814 814 813 811 810 808 808 808 808 810 810 811 809 809 808 809 806 806 805 807 809 810 812 812 811 811 812 811 810 809 807 803 802 797 797 797 796 793 793 794 794 793 791 790 790 791 791 791 791 791 792 794 795 795 795 795 795 795 794 794 794 793 792 792 793 794 793 792 790 789 789 790 790 789 790 793 795 798 800 799 799 798 801 801 800 800 800 800 801 802 804 805 807 808 809 810 810 810 809 808 810 811 812 813 814 814 814 814 815 817 819 819 821 822 824 826 828 828 829 829 829 828 827 827 826 825 823 821 819 817 817 817 819 819 822 825 826 827 829 829 830 830 831 835 838 842 846 848 850 853 854 855 855 856 857 856 856 854 854 852 849 851 854 857 858 860 861 862 863 863 863 863 863 862 861 861 860 860 861 861 861 862 862 863 863 863 862 861 858 858 858 858 859 859 861 862 862 863 864 864 865 866 866 866 866 866 866 867 868 868 868 867 864 861 858 855 855 854 853 854 854 853 852 853 854 854 855 856 856 856 855 855 854 855 855 854 854 855 854 852 852 851 850 849 848 848 849 849 849 851 854 857 859 860 862 863 863 864 864 864 864 863 863 863 863 862 862 861 861 860 860 858 857 855 854 852 849 847 844 842 841 840 839 838 836 835 832 831
855 855 854 853 853 851 850 849 847 848 848 848 848 848 849 850 851 853 853 852 850 849 848 848 848 848 848 847 847 846 848 849 849 851 853 855 856 857 858 858 857 853 849 845 842 841 840 838 837 834 832 829 827 827 826 825 823 822 820 819 819 817 815 813 813 812 812 811 812 812 813 814 816 816 816 815 814 814 815 815 815 815 815 814 814 813 811 811 811 811 811 811 811 811 811 811 812 813 814 814 814 815 815 815 815 814 813 812 811 811 810 808 808 809 809 810 811 811 812 813 813 812 810 808 806 805 808 808 808 808 809 809 811 812 812 811 810 808 808 807 808 808 808 808 807 807 807 808 808 810 810 810 810 809 809 809 811 812 814 815 814 813 812 811 812 813 815 816 816 816 815 815 815 815 815 814 814 812 811 810 809 809 810 810 811 811 812 811 810 809 809 808 808 807 808 810 811 812 813 812 812 812 811 810 810 807 805 806 800 805 804 802 801 799 799 799 798 797 796 797 795 793 792 792 792 793 794 794 795 796 796 796 796 795 795 794 793 792 792 794 794 793 792 791 790 790 791 791 789 790 790 791 794 796 796 795 796 800 800 800 800 799 799 800 801 804 806 807 809 810 810 810 809 807 806 809 811 812 813 814 814 815 815 815 818 819 821 822 824 826 828 829 830 830 831 831 830 829 828 827 826 825 825 823 821 818 816 815 816 819 821 824 825 826 826 827 828 829 832 835 839 843 845 847 849 851 853 855 855 856 856 855 854 853 850 848 850 853 856 857 859 861 862 862 863 863 863 863 862 861 860 859 859 860 860 861 861 861 861 861 861 861 860 859 858 858 859 859 860 861 863 864 866 866 866 866 866 866 866 865 865 866 867 867 867 866 864 862 859 857 854 853 852 854 855 854 853 852 853 854 854 855 856 856 856 855 855 855 855 855 855 855 855 853 852 851 850 850 849 848 848 849 850 850 852 855 858 861 862 863 864 864 865 865 865 865 864 864 864 864 863 863 862 862 861 860 859 857 856 855 853 850 848 846 844 843 843 842 841 840 838 836 834
856 855 855 854 854 853 852 850 848 847 847 847 846 846 847 848 849 851 851 849 848 846 844 843 842 841 841 840 840 839 842 846 847 848 851 853 854 855 855 856 854 850 846 841 839 838 836 834 832 831 829 826 824 824 823 822 821 819 818 818 816 815 813 811 811 812 812 813 814 814 815 815 816 816 816 816 815 815 815 815 815 815 815 814 814 814 813 811 811 811 811 811 811 811 812 812 812 813 814 813 813 815 815 816 815 814 813 810 810 810 810 810 809 809 811 811 812 813 813 813 814 812 810 809 807 806 808 808 808 808 809 810 811 812 810 810 809 808 808 808 809 809 810 809 808 808 808 809 810 811 811 811 811 810 810 810 812 814 815 816 815 814 814 812 813 814 815 816 817 816 816 815 815 815 815 814 814 812 812 811 811 811 813 812 813 811 812 813 811 811 810 810 809 809 810 811 813 813 813 813 813 813 812 811 810 807 804 803 803 808 809 809 809 807 807 806 805 803 802 801 799 797 793 792 792 793 793 794 794 795 796 796 796 796 795 794 793 792 792 794 795 794 793 792 791 791 791 791 790 790 789 789 790 791 792 791 795 800 799 797 797 797 799 799 802 804 807 808 809 810 810 809 808 807 806 808 811 813 813 814 813 815 815 816 819 820 822 824 826 828 830 830 831 831 832 832 832 830 829 827 827 827 826 825 824 821 818 816 814 814 818 821 822 823 823 825 826 827 830 833 836 840 842 844 846 848 850 851 853 855 854 851 849 847 847 849 850 853 856 857 859 860 861 862 862 862 862 862 862 860 859 858 859 860 860 860 859 859 858 859 859 859 859 858 858 859 859 860 860 861 864 865 866 866 866 865 865 865 865 865 865 865 865 865 864 863 861 859 857 854 852 852 852 855 855 855 853 853 852 854 854 856 857 857 856 856 856 856 856 856 856 856 854 853 851 851 850 849 849 848 849 849 850 850 852 855 858 861 863 864 865 865 866 866 865 865 865 865 865 864 864 864 863 862 862 861 860 858 858 855 853 851 849 846 845 846 846 845 844 843 840 838 836
856 855 855 854 854 853 853 851 849 848 847 847 845 845 846 847 847 848 848 846 845 840 838 836 836 835 835 834 833 832 836 843 845 847 849 851 852 852 853 853 850 847 842 838 836 834 833 831 829 828 827 824 823 821 820 819 817 816 815 814 814 813 813 812 813 814 814 814 815 815 815 815 816 816 816 816 815 815 815 815 815 816 816 814 813 814 813 811 811 811 811 811 811 811 813 813 813 813 813 813 813 814 814 815 815 813 812 811 811 810 810 810 808 808 811 812 813 813 814 814 814 813 812 810 808 808 808 808 808 808 811 812 812 811 809 810 811 811 810 811 811 811 811 810 810 809 809 810 811 812 813 813 812 812 811 812 813 815 816 817 817 816 815 814 814 816 816 817 817 816 816 815 815 815 814 814 814 814 814 813 813 814 814 813 812 811 812 813 813 812 812 811 810 810 812 812 814 814 814 813 813 814 814 812 810 808 806 805 806 809 811 811 812 811 810 810 810 808 807 805 803 802 798 796 795 794 793 794 793 794 795 795 796 795 795 794 793 792 792 794 795 794 794 793 792 792 791 791 790 790 790 790 789 789 789 789 794 798 795 793 793 796 798 800 803 804 807 807 808 809 809 807 806 806 805 807 810 813 814 813 812 814 816 817 819 821 824 827 828 829 831 832 832 833 833 833 832 831 830 829 828 828 827 827 825 823 819 816 815 814 814 817 821 822 822 823 824 826 829 832 834 837 838 840 843 845 847 848 850 853 851 847 844 844 849 851 853 853 855 857 858 859 861 861 862 861 861 861 860 859 858 858 858 858 858 859 858 857 856 856 856 856 857 857 858 859 859 860 861 862 863 864 864 865 865 864 864 864 864 864 865 864 863 862 861 860 858 857 854 851 852 853 853 854 855 854 853 853 854 855 855 857 857 857 857 857 856 857 857 857 858 858 855 854 852 850 850 849 849 848 849 849 850 852 853 856 858 861 864 864 865 865 865 865 866 866 865 865 865 865 865 865 864 863 862 861 860 859 858 856 854 852 849 847 851 850 849 849 847 844 842 840 837
855 855 854 854 853 853 851 850 850 848 847 847 846 845 846 846 846 847 844 841 836 833 831 831 830 829 829 828 825 828 835 843 844 845 848 849 850 849 848 848 845 842 838 835 832 831 829 828 826 825 823 821 820 818 816 815 814 813 814 814 813 814 814 814 815 816 815 815 816 816 815 815 816 816 816 816 815 815 815 815 815 816 816 814 813 813 813 811 811 811 811 811 811 812 813 814 813 814 814 814 815 814 814 814 814 813 814 814 813 811 810 808 807 809 811 812 813 814 815 815 814 814 813 811 808 808 809 809 808 809 812 811 812 811 810 811 811 813 813 814 814 814 814 813 812 811 810 811 812 813 815 815 814 814 813 814 815 816 817 818 818 817 816 816 816 817 817 818 818 817 816 816 815 815 814 814 814 814 814 813 812 812 814 814 812 811 813 813 813 813 812 812 812 812 813 813 814 815 815 813 813 814 813 812 812 811 810 810 811 811 811 811 811 811 811 811 812 812 810 809 808 807 805 802 801 799 796 795 794 794 794 794 795 794 794 794 793 793 794 794 794 794 794 793 793 793 792 791 791 790 790 790 790 790 789 789 789 789 789 789 790 793 797 800 802 803 805 806 807 807 807 807 805 805 805 808 811 813 812 811 812 814 816 818 820 822 825 829 830 831 832 833 833 833 833 833 832 832 831 830 829 829 828 828 826 824 820 817 815 814 813 814 817 819 819 821 822 824 826 829 831 833 835 837 840 842 844 846 849 852 849 843 841 845 851 852 854 854 854 856 857 859 860 860 861 860 859 859 859 858 857 857 857 857 857 857 857 855 855 854 854 855 856 857 858 859 860 860 861 862 862 862 862 862 863 863 863 863 863 863 863 862 861 860 858 858 856 853 852 852 852 853 854 854 855 854 855 855 856 856 857 857 858 858 858 858 857 858 858 859 859 858 855 854 851 849 849 849 849 848 849 849 852 854 856 857 860 862 865 865 865 864 864 864 866 866 866 866 865 865 865 864 864 863 862 861 860 859 858 857 855 852 849 851 855 854 852 851 849 845 844 841 839
853 853 853 853 852 852 851 850 848 847 845 846 846 845 845 844 841 839 835 832 831 830 829 828 827 825 825 824 826 829 835 842 843 845 845 845 844 844 843 843 840 837 834 831 829 827 825 823 822 821 819 817 815 815 814 814 814 814 814 814 815 815 816 816 817 817 816 816 816 816 816 816 816 816 816 816 815 815 815 815 815 816 816 814 813 813 813 811 811 811 811 811 812 812 813 814 815 818 817 816 816 816 816 816 816 816 816 816 815 812 811 809 808 809 812 813 814 815 815 814 814 813 813 812 809 809 810 810 809 811 812 812 812 811 811 812 813 814 816 815 815 816 816 815 814 813 812 813 813 814 816 816 815 815 815 815 816 817 818 819 819 818 816 816 817 818 818 819 819 818 817 816 815 815 814 814 814 814 814 812 811 810 812 814 813 813 813 813 814 814 814 814 814 814 814 815 815 815 815 814 813 813 812 812 813 813 813 814 813 813 812 812 812 812 812 812 812 812 812 811 811 811 810 808 806 804 802 801 798 797 796 796 795 793 793 793 793 794 794 794 794 793 793 793 793 793 792 792 791 791 791 791 791 790 790 790 790 789 790 789 789 791 795 797 799 801 802 803 804 806 806 806 806 805 806 809 811 811 814 814 814 815 817 819 821 823 825 829 831 832 833 834 834 833 833 833 833 832 831 830 830 829 829 828 827 825 822 818 816 816 815 815 815 815 816 820 821 822 823 826 828 831 832 834 837 840 843 846 849 851 847 839 840 847 852 852 853 853 854 855 856 858 859 859 859 858 858 858 857 856 856 855 855 856 856 856 855 854 853 853 854 855 856 857 858 859 860 860 861 861 860 860 860 861 861 861 861 861 861 861 862 861 859 858 857 855 853 851 852 853 853 854 854 855 856 855 856 856 857 857 858 858 858 859 859 859 859 859 859 859 859 858 855 853 850 848 848 848 848 848 850 851 854 856 858 859 861 863 865 865 865 864 864 864 865 866 866 866 865 865 864 863 863 863 862 861 860 859 858 857 854 852 851 856 857 856 854 853 852 848 844 842 841
851 851 851 851 851 851 850 849 847 845 844 842 843 845 842 837 836 836 835 834 832 831 830 829 828 826 825 824 827 831 836 840 841 841 840 840 838 838 838 837 834 832 829 827 825 823 822 820 818 817 816 816 815 815 814 815 816 816 816 816 816 816 817 817 817 817 817 817 817 817 817 817 816 816 816 815 815 815 815 815 815 815 815 814 814 814 814 812 812 812 812 812 813 814 817 819 822 823 821 820 819 819 819 819 819 819 818 817 815 813 811 809 808 810 813 814 816 816 815 814 814 813 812 812 811 810 810 811 810 813 812 813 812 812 812 813 815 816 817 817 818 818 818 817 816 815 814 815 816 816 817 818 817 817 817 817 818 819 819 819 818 817 816 814 816 817 818 819 819 818 817 816 816 814 814 814 814 814 814 813 810 810 812 814 814 814 814 815 815 815 815 815 815 815 815 816 816 816 815 815 813 813 812 812 813 814 814 814 814 814 813 813 813 813 812 812 812 813 813 812 812 811 810 809 810 809 808 807 803 803 803 803 802 800 797 796 795 794 793 793 793 793 793 793 793 793 793 792 792 792 792 792 792 791 791 790 790 791 790 789 790 792 794 795 796 796 798 800 802 804 806 806 807 807 807 810 811 811 816 817 816 817 818 820 822 824 826 829 830 832 834 835 835 835 835 834 833 833 832 831 831 830 830 829 828 826 823 820 817 817 818 818 818 814 814 816 821 821 822 823 826 829 831 834 837 839 842 845 848 850 844 836 841 847 851 852 852 852 853 854 856 857 858 858 857 857 856 856 855 855 854 854 854 854 854 854 854 854 854 854 855 855 856 857 858 859 860 860 861 861 860 860 859 859 859 860 860 860 860 860 859 859 857 856 854 853 852 852 852 853 854 854 855 855 856 856 857 858 858 859 859 858 858 859 859 859 860 860 860 859 859 857 854 852 849 848 848 848 848 850 852 854 855 858 860 862 863 865 865 864 864 864 863 864 864 865 865 865 864 863 863 862 862 861 860 859 859 859 858 856 853 852 854 858 860 858 857 855 853 850 846 844 843
850 850 850 850 850 850 848 847 846 844 843 840 839 840 839 836 836 837 838 837 836 834 832 830 828 827 825 824 828 833 836 837 836 836 835 834 833 832 832 830 828 827 824 822 820 819 818 817 815 815 815 816 817 817 816 817 817 817 818 817 817 818 818 818 818 818 818 818 817 817 817 817 817 815 815 815 815 815 815 815 815 814 814 814 814 814 813 813 812 813 812 815 818 820 822 823 824 825 826 825 822 821 820 820 821 820 819 818 816 814 812 810 809 811 813 814 816 816 814 813 813 813 813 813 812 810 811 813 813 815 814 814 813 815 815 816 817 818 819 819 820 820 820 819 818 817 817 817 818 818 819 820 820 820 820 820 820 821 820 820 817 815 814 813 814 816 818 820 819 819 818 817 817 814 814 814 814 815 815 816 812 813 813 814 814 815 815 816 816 816 817 817 817 817 817 817 817 817 814 814 813 812 811 812 813 814 814 815 815 815 814 814 814 813 813 813 813 813 814 813 812 811 811 810 811 811 810 809 808 807 807 807 806 805 804 801 799 798 796 795 794 793 793 793 793 793 793 792 792 792 792 793 793 793 792 790 790 791 791 791 792 793 792 793 793 794 796 797 800 802 805 806 808 808 808 810 812 814 816 818 818 819 819 822 824 825 828 830 831 833 835 836 836 836 836 836 835 834 833 832 832 831 831 830 830 827 824 822 819 819 820 820 820 818 815 813 815 819 820 822 826 829 831 833 836 838 841 845 845 841 834 835 841 847 851 851 851 852 852 854 855 856 857 857 856 855 855 854 854 854 853 853 853 853 853 853 854 853 853 854 853 854 855 857 858 859 860 860 861 861 860 860 859 858 857 858 858 858 858 858 857 857 855 854 853 852 853 853 853 854 854 854 855 855 856 856 858 858 859 859 859 859 859 859 860 860 861 861 860 858 858 856 853 851 848 847 848 849 851 854 856 857 858 860 862 863 863 864 864 864 864 864 863 864 864 864 865 864 864 863 861 861 859 859 858 857 857 857 857 855 855 857 857 861 861 861 859 858 855 853 851 848 847
848 848 849 849 849 849 847 845 844 842 841 839 838 837 839 840 840 841 841 840 839 837 835 832 829 826 824 824 827 831 832 833 831 831 830 830 828 826 825 823 822 820 819 818 816 816 817 817 817 817 817 818 818 818 818 818 818 818 819 819 819 819 819 819 819 819 819 818 818 817 817 817 817 815 815 815 815 815 814 814 814 815 815 814 813 813 813 812 814 816 818 818 822 824 825 826 826 828 829 829 827 825 823 822 822 821 820 818 817 815 813 811 810 812 813 814 814 814 813 813 813 813 813 813 812 812 813 814 815 816 817 817 817 818 818 819 819 820 820 820 821 821 820 820 820 819 818 819 819 820 820 821 821 821 821 822 821 821 820 820 817 815 813 812 813 816 820 822 822 820 819 818 817 816 816 816 816 816 816 817 815 816 816 816 816 816 817 817 818 818 818 818 818 818 818 818 818 817 814 813 812 812 811 813 813 814 815 815 815 815 815 815 815 814 814 814 814 813 814 813 813 812 811 812 812 811 811 810 810 810 809 808 808 807 807 805 804 802 800 798 797 796 794 794 793 793 793 792 792 793 793 794 794 794 792 791 790 791 791 792 793 794 790 790 791 793 794 796 799 801 803 805 807 808 809 810 812 813 815 817 818 820 820 823 825 828 830 831 832 835 836 837 838 838 838 838 837 836 835 833 833 833 833 832 831 829 826 823 821 821 821 821 822 819 817 815 813 815 818 820 826 829 831 833 835 837 840 838 837 832 830 835 840 846 850 851 850 851 851 853 854 855 856 856 855 854 855 853 853 852 852 851 851 851 851 851 852 852 851 852 852 853 855 857 858 859 860 860 861 861 860 859 859 857 856 855 855 855 855 855 856 855 853 852 852 854 854 854 854 854 854 854 855 855 856 856 858 858 859 859 859 859 859 859 860 860 861 859 859 857 857 855 853 851 848 849 850 853 855 858 860 861 862 862 862 862 863 863 863 863 863 863 864 864 864 864 864 864 862 861 860 858 858 858 856 855 855 856 857 857 858 860 861 863 864 863 861 860 858 856 856 854 853
846 846 847 848 849 849 846 844 843 842 840 842 843 843 844 845 844 845 845 843 841 840 839 835 831 828 824 823 824 826 828 829 828 826 825 825 823 821 820 819 817 816 817 817 818 817 818 818 819 819 819 820 819 819 820 820 819 820 820 820 820 820 820 820 820 820 819 819 818 817 817 816 817 815 815 814 814 814 814 814 814 815 816 814 812 813 815 817 819 821 822 821 823 826 827 828 829 830 831 830 829 827 825 823 822 821 820 819 818 816 814 813 811 812 812 812 813 813 813 813 814 814 813 813 812 813 815 815 817 817 819 820 821 821 821 822 822 822 822 822 822 822 822 822 821 821 821 821 821 821 822 822 823 823 823 822 822 821 820 820 817 815 814 814 816 819 823 823 822 820 820 820 819 818 817 817 817 817 817 818 817 817 817 817 817 817 818 818 819 819 818 819 819 819 819 819 819 818 815 814 813 812 812 813 814 814 815 815 815 815 815 815 815 814 814 814 814 814 814 814 814 813 812 812 812 812 811 810 810 810 810 809 808 808 807 807 807 804 803 802 801 800 797 796 794 793 793 793 793 793 793 795 795 795 793 792 790 791 791 792 792 793 792 789 790 791 793 795 797 799 801 803 805 808 809 810 812 813 815 817 818 821 823 826 828 830 832 832 834 835 837 838 839 840 840 840 839 838 836 834 834 834 834 833 833 830 828 824 822 822 823 823 823 821 818 816 813 812 815 819 826 829 831 833 834 836 835 831 827 829 835 839 842 846 850 849 850 850 850 852 853 854 855 855 855 854 854 853 853 852 851 851 850 849 848 848 849 851 850 850 851 853 855 857 858 859 860 860 861 860 860 859 858 857 856 855 854 854 853 853 853 852 851 850 852 853 854 854 854 854 854 854 855 855 856 856 858 858 859 859 859 859 859 859 860 860 860 859 857 856 856 855 852 851 849 851 855 857 860 862 862 863 863 863 863 863 862 862 862 863 864 864 865 864 865 865 863 862 860 859 857 856 855 855 854 855 856 857 859 860 862 863 865 865 865 864 862 861 860 859 858 858 856
844 844 845 846 847 848 845 842 842 844 846 847 848 849 849 849 849 848 848 846 844 843 841 838 834 829 825 821 821 822 825 825 823 822 821 820 820 818 817 818 817 817 818 819 819 820 822 822 822 822 821 821 821 821 821 822 822 822 822 822 822 822 821 820 821 820 819 819 818 818 817 816 816 815 815 814 814 814 814 814 814 814 814 814 815 816 819 823 825 826 823 823 825 828 829 830 831 832 831 830 828 826 825 822 822 821 820 821 820 817 816 814 812 812 812 812 812 813 813 814 814 814 814 813 812 813 815 817 818 819 820 821 823 824 824 825 825 825 824 824 824 824 824 823 823 822 822 822 823 823 823 824 824 825 825 823 822 822 820 819 818 818 817 817 820 824 824 823 821 820 820 821 820 820 819 818 818 819 819 819 820 819 819 818 818 818 819 819 819 819 820 819 819 819 819 819 820 818 816 815 813 812 812 813 814 815 815 815 816 816 816 816 816 815 815 815 815 815 815 815 815 814 814 813 813 812 812 811 811 811 811 810 810 810 809 809 808 807 807 806 806 803 801 799 799 797 797 796 794 794 794 793 793 794 793 790 790 790 791 791 792 792 790 790 789 790 792 794 796 797 801 802 805 806 807 808 810 812 815 818 821 823 826 829 831 832 833 834 835 837 838 839 840 841 841 842 841 839 837 835 834 835 836 835 834 831 829 825 822 822 823 824 824 823 820 817 815 813 814 817 824 829 831 833 834 834 828 825 823 832 841 843 846 847 848 848 849 849 849 850 851 853 854 854 854 853 853 852 852 852 851 851 850 848 847 846 847 848 850 850 851 853 855 857 858 859 860 860 860 860 860 859 858 857 856 855 853 852 851 850 850 850 849 850 851 852 853 853 854 854 854 854 854 855 855 856 858 858 859 859 859 858 859 859 860 860 860 859 856 855 855 853 851 850 852 856 860 862 863 863 863 863 864 863 863 863 862 862 863 864 864 865 867 866 865 864 861 860 858 856 855 854 853 854 855 857 858 861 862 864 865 866 867 866 866 864 863 861 860 859 858 858 857
844 842 842 842 842 843 845 846 848 849 851 851 852 852 852 851 851 850 850 849 847 845 843 839 835 830 826 822 820 820 821 821 820 818 818 818 818 818 818 819 819 819 820 821 822 823 825 826 826 825 824 823 823 823 823 824 824 824 824 823 823 822 822 821 821 820 820 819 818 818 817 817 816 815 815 814 814 814 814 814 813 813 813 816 821 824 823 827 828 829 828 828 828 830 831 832 832 831 830 829 828 826 824 822 821 821 822 823 821 819 817 815 814 812 812 812 812 813 813 814 815 814 814 814 814 814 815 817 819 820 822 823 825 827 827 826 826 826 826 826 827 827 826 826 825 825 825 825 825 825 825 825 825 826 826 825 824 823 821 820 820 821 821 821 824 826 824 822 822 822 822 822 822 821 821 820 820 821 821 823 823 822 821 820 819 819 820 819 819 820 821 820 820 820 820 820 820 819 817 816 814 812 813 813 814 816 816 816 816 817 817 816 816 816 815 815 815 815 816 815 815 815 815 814 814 813 813 813 812 812 812 812 812 812 811 810 809 809 808 806 806 806 804 803 803 802 802 799 796 795 796 794 792 791 789 789 789 790 790 790 791 790 790 790 790 789 791 793 794 796 800 804 805 805 805 806 809 811 814 819 824 827 830 830 832 834 834 835 837 838 839 841 841 842 842 843 842 840 838 836 835 836 836 836 835 831 828 824 821 822 823 824 825 824 822 820 818 816 813 816 823 829 829 831 832 832 826 820 827 837 840 841 843 844 845 846 846 847 847 848 850 851 852 852 852 852 852 852 852 852 852 851 850 848 846 844 845 847 849 850 851 853 855 857 858 859 859 860 860 860 859 858 858 857 855 854 853 851 850 849 848 848 849 850 851 852 852 853 853 854 854 854 854 854 855 856 857 858 859 859 858 858 859 860 860 860 860 858 856 853 853 852 851 853 857 860 863 863 863 863 863 864 864 864 863 863 863 863 863 865 865 867 867 866 864 861 859 858 856 854 853 852 853 855 857 859 861 863 865 867 868 868 867 866 866 864 863 861 860 860 859 860 859
848 848 848 847 847 848 850 852 854 854 855 855 855 855 854 854 854 853 852 850 849 847 845 840 836 832 828 824 822 821 821 820 818 817 818 818 819 820 820 822 822 822 823 823 824 826 827 829 829 827 827 825 824 825 825 825 825 825 825 824 823 823 822 822 821 821 820 820 819 818 816 816 816 815 814 814 814 814 814 814 813 815 819 822 826 827 823 826 830 832 832 832 834 834 833 833 831 831 830 829 827 825 824 823 822 823 823 824 823 820 819 817 814 813 812 812 813 813 814 814 815 815 814 814 815 815 817 818 820 822 823 825 828 829 830 829 828 828 828 829 829 830 830 828 828 827 827 827 826 825 825 825 826 826 827 826 825 823 822 822 823 824 825 825 826 826 825 823 823 823 823 823 823 822 822 822 823 823 824 825 826 825 823 822 821 820 820 819 819 820 822 822 822 821 821 820 820 820 818 817 815 813 813 815 815 817 817 817 818 818 817 817 816 816 816 816 816 816 816 816 816 816 816 816 815 814 814 814 813 813 813 813 813 813 813 811 810 809 809 807 808 807 806 806 806 806 805 803 799 798 798 795 793 792 789 789 788 790 790 790 790 790 790 790 790 789 790 791 793 797 801 805 805 803 803 805 808 810 813 819 824 828 830 828 832 834 835 836 838 839 840 842 842 842 842 842 841 840 839 837 836 837 837 837 836 831 827 823 821 821 823 823 825 824 823 823 821 818 814 815 823 829 829 829 830 831 824 820 827 836 838 839 840 842 842 843 844 845 846 848 849 849 851 851 850 850 851 851 851 852 852 851 850 847 844 842 842 845 847 850 852 853 855 857 858 859 859 860 860 860 859 858 857 856 854 853 852 850 849 847 848 848 849 850 851 852 852 853 853 854 854 854 854 854 855 856 857 858 860 860 858 858 858 861 860 859 858 856 854 852 851 851 854 857 861 863 863 863 863 863 863 863 864 864 864 864 864 863 864 865 866 867 866 863 861 859 857 855 853 852 851 853 856 857 858 861 863 865 867 868 868 868 867 866 866 864 864 862 861 861 861 862 860
852 852 854 855 855 856 858 858 858 857 857 857 857 857 856 856 856 855 854 852 851 849 847 842 838 834 830 828 827 826 824 822 821 821 821 820 822 823 825 826 827 826 826 825 827 828 829 831 831 830 829 828 827 827 827 828 827 826 825 825 824 824 823 822 822 821 821 820 819 817 816 815 815 814 814 814 814 814 814 816 818 820 822 826 829 831 828 831 833 835 836 835 835 834 833 832 831 830 830 829 827 826 824 824 824 825 826 826 825 822 820 818 816 814 812 812 813 814 814 815 816 817 816 816 816 817 818 820 822 824 826 828 830 832 832 832 831 830 831 832 832 833 833 831 831 829 828 827 827 825 825 826 826 827 828 827 826 824 823 824 824 825 826 826 827 828 827 825 825 825 825 825 825 825 824 824 824 825 827 828 827 827 824 823 821 822 823 820 819 819 822 824 823 822 822 821 821 821 819 817 816 814 814 816 816 817 818 818 818 818 818 817 817 816 816 816 816 816 816 817 817 817 817 817 815 815 815 815 815 815 815 815 814 813 813 812 811 810 810 809 809 809 808 808 807 807 806 806 802 801 799 797 798 797 792 790 788 789 789 790 790 790 790 790 790 790 789 790 792 796 801 804 804 802 803 804 806 809 812 818 824 829 825 825 829 833 836 837 838 840 841 842 841 841 841 841 840 839 838 837 837 838 838 838 837 832 828 824 820 822 822 823 824 824 823 823 821 818 813 814 823 828 829 829 830 827 821 820 825 834 837 838 838 839 839 841 842 843 845 846 848 849 850 850 849 849 849 851 850 852 852 851 848 846 843 841 839 843 846 849 851 853 855 857 858 858 859 859 859 858 858 858 857 855 854 852 851 849 848 847 849 849 849 850 850 851 852 852 853 854 854 854 854 854 855 856 857 858 859 861 859 857 858 861 860 856 854 854 852 851 850 854 858 861 863 863 863 863 863 863 863 863 863 863 863 864 864 864 864 864 864 864 864 861 858 856 854 853 851 851 851 852 855 857 860 862 863 865 866 867 867 867 866 866 865 865 864 863 862 862 862 864 862
854 854 858 861 862 862 863 862 860 858 858 858 858 858 858 858 857 855 855 853 852 851 849 844 839 836 833 831 831 830 830 828 825 824 824 824 825 827 830 831 831 830 828 827 828 830 831 832 833 832 832 830 829 829 830 830 829 828 826 826 825 825 824 823 823 821 821 820 818 816 816 814 814 814 815 814 813 816 819 822 824 825 827 830 832 835 835 837 837 837 837 836 835 834 833 832 831 830 829 829 828 827 826 825 826 827 827 828 826 824 822 819 817 815 813 812 813 814 815 816 817 817 817 817 817 818 820 823 825 827 829 831 832 834 834 833 833 831 832 833 834 836 836 835 832 831 829 828 828 826 825 825 826 827 828 828 826 825 824 825 826 826 828 829 829 828 829 828 827 827 827 827 827 827 826 826 827 828 828 828 826 825 825 823 822 823 825 824 824 824 824 825 824 823 823 822 822 821 820 818 817 814 815 816 817 818 818 818 818 818 819 817 817 816 816 816 816 816 816 817 817 817 817 817 816 816 815 815 815 815 815 815 814 813 812 812 812 811 811 810 810 809 809 809 808 807 806 806 804 802 802 801 801 800 795 793 791 789 788 790 790 790 790 790 790 790 790 790 790 793 797 799 802 802 801 804 806 808 810 818 826 829 824 825 828 832 835 837 838 840 841 842 841 841 840 839 839 838 838 837 837 838 839 839 838 833 829 824 819 821 822 823 824 824 822 821 819 816 812 815 823 828 829 828 826 822 819 822 826 833 835 836 836 837 837 839 840 842 843 845 846 847 849 849 849 849 849 850 850 851 851 849 847 844 841 839 838 841 844 848 851 853 855 857 858 858 859 857 857 857 857 857 857 855 853 851 849 848 847 848 849 850 850 851 851 852 852 852 853 853 853 853 854 854 854 855 857 858 858 860 861 859 862 860 857 853 849 849 849 851 854 858 862 863 863 864 863 863 863 863 863 863 863 863 863 863 863 863 863 863 862 861 861 859 856 854 852 851 851 851 851 853 856 859 861 862 863 864 864 865 865 865 866 866 866 866 865 864 864 864 864 864 863
855 856 859 862 865 865 864 863 861 859 860 860 860 860 859 859 857 856 855 854 853 852 850 846 843 839 836 835 834 834 833 832 830 828 826 827 829 831 833 835 833 831 830 828 830 831 833 835 835 834 833 833 832 831 831 831 830 829 828 827 826 825 825 824 823 821 820 819 816 816 815 814 814 814 815 816 818 822 825 828 829 830 833 835 837 839 839 840 838 837 836 835 835 833 833 831 831 830 829 829 829 828 827 827 827 828 828 829 828 825 822 820 818 817 814 813 813 814 816 817 818 818 818 818 819 822 823 826 828 831 832 834 836 836 836 835 833 833 833 835 836 837 836 836 834 833 831 830 829 827 826 826 826 826 827 828 826 826 825 826 828 829 831 832 831 831 830 829 829 828 828 827 828 828 828 828 828 829 828 827 826 824 824 823 822 823 826 826 826 826 825 825 824 823 823 822 822 822 820 819 818 815 816 817 818 819 820 819 819 819 819 818 818 817 816 816 816 816 817 817 817 818 818 818 817 816 816 815 816 816 815 814 814 813 813 813 813 812 812 812 812 811 811 810 810 808 807 806 805 804 802 802 802 801 798 796 795 792 789 788 788 789 790 790 791 791 791 790 790 790 792 794 797 800 800 803 804 807 809 817 826 828 823 824 828 831 834 836 838 840 841 842 841 841 840 838 838 838 838 837 837 838 839 839 838 833 829 823 818 820 822 823 824 823 820 818 816 813 812 817 824 828 827 825 821 818 821 824 828 832 833 834 834 834 836 837 839 840 842 843 844 846 847 848 848 848 848 848 849 849 849 848 845 842 840 838 837 840 844 848 851 853 854 857 857 858 856 855 854 854 854 854 855 853 851 850 847 848 848 849 850 850 851 852 852 852 853 853 853 853 853 853 853 853 854 855 857 857 859 860 862 860 858 858 854 851 848 848 849 853 857 861 863 863 864 864 863 863 863 862 863 863 863 862 862 862 863 863 862 862 860 860 859 856 853 852 850 850 851 850 852 855 857 859 861 862 863 863 864 864 865 865 866 866 867 867 868 867 867 866 866 864 863
857 858 860 861 863 864 863 863 863 861 861 861 860 860 859 858 858 857 856 855 854 854 852 849 846 843 840 839 837 837 837 835 834 832 829 830 832 834 835 836 834 833 831 829 831 833 835 837 837 836 835 834 834 833 833 832 832 831 829 828 827 826 825 824 824 822 820 817 816 815 814 814 815 815 817 822 828 828 829 832 834 836 838 839 842 842 841 838 837 836 834 834 834 833 832 831 831 830 829 828 829 829 829 828 829 829 830 831 829 827 824 821 820 818 816 814 813 815 817 819 820 820 820 820 821 825 828 830 832 833 835 836 837 837 837 835 835 834 834 835 836 837 836 836 834 834 832 831 829 827 826 826 828 827 827 827 827 827 827 828 830 832 833 835 834 833 832 832 831 830 829 829 830 830 829 829 828 827 826 826 825 823 823 824 823 825 826 825 824 823 823 824 824 824 824 823 823 823 821 820 818 816 817 818 820 821 821 821 820 820 819 819 818 817 817 817 817 817 817 817 818 818 819 819 818 817 816 816 816 816 815 815 814 814 814 814 814 813 813 813 813 812 812 812 811 810 809 807 806 805 804 803 803 802 802 800 799 795 791 789 788 788 789 790 790 791 791 791 790 789 790 792 794 797 799 801 803 805 807 815 824 827 823 823 827 829 832 835 838 839 841 842 841 840 839 838 838 838 838 837 837 838 839 839 838 833 828 822 818 819 821 822 823 820 818 816 813 811 813 819 823 826 822 819 817 820 824 827 831 831 831 832 832 832 833 836 837 839 841 842 844 845 846 846 847 847 846 846 846 846 846 845 843 841 838 836 837 840 845 848 851 853 855 856 855 855 854 852 852 852 852 853 852 851 848 848 848 850 851 850 850 851 851 852 853 853 853 853 853 853 853 853 853 853 854 855 856 857 858 859 858 855 853 853 852 849 848 848 851 854 859 861 861 862 863 864 863 863 862 862 862 862 862 862 862 862 862 862 861 861 859 858 856 853 851 849 849 850 850 850 853 857 858 859 861 862 863 863 864 864 865 865 866 866 867 868 868 869 868 866 865 864 862
858 859 859 860 861 863 862 862 862 861 861 861 859 859 859 858 858 857 857 856 856 855 854 852 849 846 843 842 841 841 840 839 837 835 833 833 835 836 837 837 836 834 833 831 832 834 837 838 839 838 837 835 835 835 834 834 833 832 830 829 827 826 825 825 824 822 819 816 815 815 814 814 815 815 823 828 831 831 833 836 838 841 843 842 842 841 841 839 837 835 833 833 833 832 832 831 830 830 828 828 828 829 829 830 831 831 831 832 830 828 826 823 821 819 819 817 817 819 821 820 820 820 822 822 822 827 832 834 834 835 836 836 838 838 838 836 835 834 835 835 836 837 836 836 834 834 832 831 829 827 826 826 829 829 828 828 829 829 829 831 832 834 836 837 836 836 835 835 834 831 830 830 830 830 829 828 825 824 824 824 824 822 824 827 828 827 824 823 822 822 822 823 825 825 825 824 824 823 822 821 818 817 818 820 821 823 823 822 822 821 820 819 818 818 817 817 817 817 818 818 819 819 820 819 819 817 817 816 816 816 816 815 815 815 815 815 814 814 814 814 814 813 813 813 812 811 810 809 807 806 806 806 806 806 805 804 803 798 795 792 789 790 788 789 789 791 791 791 790 790 789 790 792 795 797 798 801 802 804 813 821 827 825 823 825 828 831 833 836 838 840 842 840 839 838 837 837 837 837 837 837 838 838 838 838 832 827 820 817 818 819 820 821 819 817 815 812 812 812 816 821 820 815 815 819 824 827 827 827 827 827 828 828 829 831 834 836 838 840 842 842 844 845 845 845 845 844 844 845 845 845 843 841 839 836 834 837 840 845 849 851 852 853 853 853 852 851 850 850 849 850 850 850 848 848 848 850 851 851 850 850 851 851 852 853 854 853 853 853 853 853 853 853 853 853 854 854 855 855 855 852 850 848 848 849 847 848 849 851 854 858 859 860 861 862 863 863 862 862 861 861 861 861 862 861 861 861 861 861 859 858 855 853 850 849 848 848 848 849 851 854 857 858 859 862 862 863 863 864 864 865 865 866 867 868 868 868 869 868 866 864 863 861
858 859 859 860 860 861 861 860 860 860 860 859 859 859 858 858 858 857 857 857 857 857 856 854 851 849 846 845 845 844 844 843 840 839 837 836 837 837 839 839 837 836 834 832 834 836 838 840 840 839 838 837 836 836 835 835 835 833 831 830 827 827 826 825 823 821 817 815 814 815 815 815 817 824 827 831 834 835 837 840 842 843 844 842 842 841 841 838 837 835 833 833 833 832 832 832 830 830 830 830 830 830 830 831 832 832 833 834 832 829 827 824 823 821 821 819 820 824 823 822 820 821 822 823 824 830 836 835 835 836 837 838 838 839 838 837 835 834 834 835 836 837 836 836 834 834 832 831 829 827 825 826 829 831 830 831 831 831 832 833 834 836 838 838 839 839 838 838 837 833 831 830 828 828 827 826 823 821 820 819 825 830 830 829 827 826 824 822 821 821 823 824 826 827 826 826 826 824 823 822 819 818 818 821 822 824 824 822 822 821 820 820 819 818 818 818 818 818 818 819 820 820 821 820 819 818 818 817 816 816 816 816 816 816 815 815 814 814 814 814 814 813 813 813 812 812 811 810 809 808 808 809 809 809 808 808 805 802 799 796 792 793 788 789 789 791 791 791 790 790 790 789 790 792 794 796 798 800 803 810 816 823 828 826 826 827 830 832 834 836 839 841 839 838 836 835 835 836 835 835 837 838 838 838 833 827 823 818 815 817 818 819 819 818 816 813 812 812 813 814 816 814 814 818 821 824 824 824 824 824 825 825 827 828 831 833 835 837 839 841 841 843 844 843 843 842 842 842 842 842 842 841 838 836 833 833 837 840 844 848 850 850 850 850 850 849 848 848 848 848 848 848 849 847 847 848 849 851 851 850 850 851 851 853 853 854 853 853 853 852 853 853 853 852 852 852 852 853 852 850 849 847 845 845 846 847 849 850 851 854 856 858 859 860 862 862 862 861 861 860 861 861 861 861 861 861 861 860 858 856 855 853 851 850 848 846 846 847 849 852 855 856 858 860 862 862 863 863 864 864 865 865 866 867 867 867 868 868 867 866 863 862 861
859 859 859 860 860 859 859 858 858 858 857 858 858 858 858 858 858 858 858 857 857 857 857 856 853 850 848 847 847 847 847 846 843 842 839 838 838 839 840 840 839 838 836 834 835 838 839 839 839 839 839 838 837 837 836 836 836 833 832 830 828 827 825 823 821 817 816 815 815 816 816 817 823 827 830 833 836 839 841 842 844 844 844 843 843 841 841 839 837 835 833 833 832 832 832 831 831 831 832 832 832 832 832 832 833 834 835 835 833 830 828 826 824 823 823 822 822 827 824 822 820 821 823 825 828 834 838 836 836 837 837 839 839 840 838 837 835 834 834 835 836 837 836 836 834 833 832 830 829 827 825 827 830 832 831 832 832 834 834 835 836 837 839 839 839 840 841 841 840 836 829 828 826 825 824 825 822 822 827 828 828 830 829 828 827 825 824 823 822 822 824 826 827 828 828 827 826 825 824 821 820 818 819 821 822 824 824 823 822 821 820 820 819 818 818 818 819 820 820 820 821 822 821 821 820 819 818 818 817 817 816 816 816 816 815 815 815 815 815 815 815 814 814 813 813 812 812 811 810 809 810 810 810 810 809 809 807 807 803 801 797 793 790 788 789 791 791 791 790 790 790 789 789 789 793 794 797 800 800 802 807 814 821 827 829 829 830 831 834 837 839 840 839 837 835 834 834 834 833 833 836 838 839 836 830 825 820 816 813 815 816 817 818 817 815 813 812 813 814 813 815 814 815 817 820 823 822 822 821 821 823 824 826 828 830 832 834 836 838 839 840 841 842 841 841 840 840 840 840 840 840 839 836 833 831 833 837 840 843 846 848 847 849 849 848 848 847 846 846 848 847 847 847 846 846 846 848 849 849 850 850 851 851 852 852 852 852 853 852 852 852 852 852 851 851 851 850 850 846 847 847 846 844 845 846 848 850 851 852 852 855 856 857 859 861 861 861 859 859 858 860 860 860 860 860 860 858 857 856 855 852 851 849 848 847 845 845 848 850 852 855 857 858 859 860 861 862 862 864 864 865 865 866 866 866 866 867 868 866 865 863 861 860
859 860 860 860 859 858 857 857 856 856 856 857 857 858 858 858 858 858 858 858 857 857 857 856 854 853 850 850 850 848 848 846 845 844 841 840 841 841 842 842 841 839 838 835 838 839 839 839 839 838 838 838 838 838 837 837 836 834 833 830 828 826 824 822 819 816 815 814 814 816 817 822 827 829 833 836 839 841 843 843 844 844 845 844 843 842 841 838 836 834 832 832 832 832 832 832 833 833 835 835 834 834 834 833 835 835 836 836 835 832 829 827 825 826 826 826 826 830 826 823 820 822 826 830 835 840 840 839 837 838 838 839 840 840 838 837 835 834 835 835 835 836 835 835 834 833 831 830 830 829 829 831 832 832 832 833 833 835 836 836 837 838 839 840 840 840 842 842 839 835 829 825 823 822 821 821 820 821 826 829 828 828 827 827 826 825 824 824 823 823 825 827 828 829 829 828 826 826 824 822 821 819 820 821 823 824 824 823 822 822 820 820 820 819 819 819 820 820 821 821 822 822 822 822 821 820 819 819 818 818 817 816 816 816 816 816 816 816 816 816 815 815 814 814 813 813 812 812 812 812 812 812 812 811 811 809 808 808 809 806 802 798 794 789 788 791 791 790 790 791 791 791 790 790 790 796 799 799 800 801 803 806 811 819 827 830 829 831 834 836 839 840 839 837 835 833 832 832 832 832 834 837 839 832 826 822 819 815 811 813 814 815 817 815 814 812 813 814 814 815 816 816 816 817 819 821 820 821 820 820 822 823 825 827 829 831 833 835 837 838 838 840 841 840 839 839 837 838 838 838 838 836 833 831 829 833 835 838 842 844 846 846 847 848 846 846 845 845 845 847 847 846 846 846 846 845 846 847 848 848 848 849 850 850 850 851 851 851 851 851 851 851 851 851 850 850 847 844 842 843 843 843 843 844 847 850 852 852 852 852 853 855 857 858 859 859 858 858 857 857 857 859 859 860 859 857 856 854 853 853 851 849 847 845 845 844 845 847 850 853 855 857 857 857 858 859 860 861 863 864 864 864 864 865 865 866 866 867 866 864 862 860 859
860 860 860 859 857 856 856 855 855 855 856 857 858 858 859 858 858 858 858 858 857 857 857 856 854 853 852 851 850 849 848 846 846 845 843 842 842 843 843 843 842 840 839 837 838 838 838 838 838 838 838 839 839 838 838 837 837 834 833 831 828 826 824 822 819 816 815 813 814 815 819 827 830 832 835 838 840 842 843 843 845 845 845 844 843 842 840 838 836 834 832 832 832 832 832 834 835 836 837 837 836 836 836 835 836 837 837 838 836 834 830 827 826 828 829 829 831 830 827 824 821 823 829 833 839 844 842 840 839 839 839 840 840 840 839 837 835 834 834 834 835 835 834 834 833 832 832 833 833 833 833 833 833 832 833 834 835 835 837 838 838 839 840 841 840 840 841 839 836 831 827 823 821 821 819 819 820 821 823 826 826 826 826 826 826 826 825 825 824 825 826 828 829 829 829 828 827 826 824 823 821 820 821 822 824 825 825 823 823 822 821 821 820 820 820 821 821 822 822 822 822 822 822 822 821 821 820 820 819 818 817 817 817 817 817 817 817 817 817 817 816 816 815 814 814 813 813 813 813 813 813 813 813 813 812 811 810 810 810 809 807 803 799 794 790 788 789 790 790 792 792 791 791 790 789 792 797 798 799 801 802 802 806 812 821 827 829 831 833 836 838 839 837 836 834 831 831 830 830 830 833 835 835 829 824 820 816 813 809 811 812 813 814 813 812 811 814 815 816 816 817 817 817 818 819 820 820 820 820 821 822 823 825 826 828 830 832 834 835 836 837 838 838 838 837 837 836 836 835 835 835 834 831 828 830 832 835 838 840 843 844 845 846 846 845 842 843 842 843 846 845 845 844 844 844 844 845 845 845 845 845 846 848 849 850 850 850 849 849 849 849 849 849 848 847 846 844 840 838 840 840 841 842 843 846 848 850 851 852 852 852 854 855 855 856 856 856 855 855 855 855 856 857 858 857 855 854 852 851 850 849 847 845 843 842 842 844 847 849 851 853 853 854 855 855 856 858 860 862 863 863 863 863 864 864 865 865 867 865 863 861 860 858
859 859 859 857 856 855 854 854 855 855 856 857 858 859 859 859 859 859 858 858 858 857 857 856 854 853 852 851 850 849 848 847 846 845 844 844 844 844 845 844 843 841 840 839 839 838 838 838 838 839 839 840 840 839 839 838 838 835 833 830 828 826 824 821 819 816 815 814 815 816 823 828 831 835 836 838 840 842 842 843 845 845 845 844 843 842 840 838 835 833 831 832 833 834 835 836 837 838 839 839 838 838 837 837 838 838 839 840 837 834 831 827 826 828 829 830 831 829 827 824 821 824 827 833 841 846 843 842 840 839 839 840 840 840 839 838 836 835 835 834 834 834 834 833 832 832 833 834 836 837 834 831 832 833 835 835 836 837 838 839 840 840 841 841 840 839 837 834 831 828 824 822 820 821 820 821 822 822 823 824 825 825 826 827 828 827 827 826 825 826 827 827 828 828 828 828 827 826 825 824 822 821 822 823 824 825 825 824 823 823 822 821 821 821 820 822 822 822 822 822 822 822 822 822 821 821 820 820 819 819 818 818 818 818 818 818 818 818 818 818 817 817 816 815 814 814 814 814 814 814 814 814 814 814 813 813 812 812 811 811 809 807 803 799 793 789 788 789 791 792 792 791 791 790 789 789 792 796 797 799 800 801 803 809 816 823 827 830 832 835 837 837 835 834 832 830 830 829 829 830 832 833 830 826 821 817 813 810 808 808 810 810 811 811 809 812 814 817 817 818 819 819 819 820 820 820 820 821 821 821 823 824 826 827 828 828 831 832 833 834 835 836 836 836 835 835 834 834 833 833 834 831 829 826 830 833 835 837 839 841 842 844 844 845 843 840 840 841 842 843 844 844 843 843 843 843 842 842 842 842 842 843 844 846 847 847 847 846 846 846 846 845 845 844 843 841 840 837 835 836 836 839 839 841 843 845 846 848 849 850 851 852 852 852 853 853 853 852 852 854 853 853 853 854 854 854 853 851 850 848 846 845 844 841 840 841 844 846 847 847 848 849 850 851 852 855 857 859 861 862 862 862 862 862 863 864 865 866 865 863 860 858 857
857 857 856 855 854 854 854 854 854 855 856 857 858 859 859 859 859 859 859 858 858 857 857 856 854 854 852 851 850 849 848 847 846 845 844 844 845 845 845 846 844 843 842 842 841 840 840 840 840 840 840 841 841 840 840 839 839 836 833 831 828 826 824 822 819 817 815 815 816 819 825 829 831 834 837 838 839 841 842 843 842 842 842 843 842 842 840 838 836 834 833 833 835 836 837 838 838 840 840 840 839 839 838 838 839 840 840 840 837 834 830 827 826 828 829 830 830 828 827 825 822 824 828 833 843 846 844 842 840 839 840 840 840 841 839 838 837 835 835 834 834 834 834 833 832 832 832 834 835 835 831 829 831 834 837 838 838 839 840 840 841 841 840 840 839 835 832 830 827 824 822 821 821 821 822 822 823 824 824 825 826 826 828 828 829 828 828 827 826 826 825 826 827 827 827 827 827 827 826 824 823 822 822 824 825 826 826 825 824 823 823 822 822 822 821 822 823 823 823 823 822 822 822 822 821 821 820 820 819 819 818 818 819 819 819 819 819 819 818 819 818 818 817 817 816 816 816 816 816 816 815 815 815 815 814 814 814 813 812 811 809 809 806 802 798 793 789 787 791 791 791 790 790 790 790 789 788 792 794 795 797 799 802 808 815 819 821 829 831 833 834 833 833 831 830 829 829 829 829 832 830 827 825 822 818 815 812 808 806 806 807 808 808 807 809 811 814 816 818 819 821 821 821 822 821 822 821 822 822 822 823 824 826 827 827 828 829 830 832 833 834 835 835 835 834 833 832 832 831 831 831 829 826 826 829 832 834 836 838 839 841 842 843 844 842 838 836 838 840 840 841 842 841 841 841 840 838 839 839 839 838 840 841 842 844 844 844 844 843 843 842 841 841 840 839 837 835 834 833 833 834 837 838 839 840 841 842 843 845 847 848 849 849 850 850 850 850 851 851 853 853 850 851 851 851 852 852 848 845 845 844 843 841 840 840 841 842 842 842 843 844 844 846 848 851 853 856 858 861 861 861 861 861 860 861 863 865 865 864 862 859 858 856
854 854 854 852 852 852 854 854 855 855 856 857 858 859 859 859 859 859 859 859 858 857 857 856 855 854 852 851 851 849 848 848 846 846 844 844 845 846 846 847 846 846 844 844 843 843 843 843 843 842 842 842 842 842 841 841 840 837 834 831 828 827 825 824 819 817 815 815 816 819 825 828 831 833 836 837 839 841 841 840 840 839 839 839 840 841 841 840 838 836 836 836 837 838 839 839 840 841 841 841 841 841 840 840 840 840 840 840 837 834 830 827 826 827 828 829 829 827 826 824 823 827 831 835 845 847 844 843 840 840 840 841 841 840 840 839 837 835 835 835 835 834 833 833 832 832 832 833 830 828 828 831 834 837 840 840 841 841 841 840 840 840 839 839 836 833 829 825 824 822 822 821 821 822 822 823 823 824 825 825 826 827 828 829 830 829 828 828 827 827 826 826 826 826 827 827 828 828 827 825 824 822 823 824 825 825 825 825 825 824 823 823 823 823 823 824 823 823 823 823 822 822 822 822 821 821 820 820 819 819 818 818 819 819 820 820 820 820 819 819 819 819 819 818 818 818 818 817 817 817 816 816 816 816 815 815 815 814 813 812 811 810 809 805 801 797 793 789 788 789 790 790 790 790 790 790 789 789 790 793 795 798 799 805 810 814 818 824 828 829 829 830 830 829 829 828 829 830 828 827 824 822 819 819 815 814 811 808 805 805 805 805 807 808 810 811 814 816 818 819 821 823 823 823 824 824 824 824 824 824 824 824 826 827 827 828 828 829 830 831 832 833 834 833 832 831 830 830 829 829 828 827 824 826 828 830 833 834 836 838 839 840 841 842 839 834 832 835 837 837 838 839 839 838 837 835 835 835 835 835 835 836 838 839 841 841 841 840 840 839 839 838 838 837 837 836 834 832 832 834 837 838 838 838 838 839 839 840 842 844 846 846 846 846 847 847 848 849 850 851 851 850 849 849 850 851 848 842 841 840 840 839 839 839 838 840 841 841 840 840 840 842 844 846 849 852 855 857 859 861 861 860 858 858 860 861 863 864 863 861 858 857 855
852 852 852 851 851 851 852 854 854 855 856 857 858 860 860 860 860 860 860 859 858 857 857 856 855 854 852 852 851 850 849 848 847 846 845 845 845 847 847 848 848 847 847 846 846 846 845 845 845 843 842 841 840 841 842 842 841 839 835 830 828 828 826 823 818 815 815 815 816 819 824 827 830 833 834 836 836 838 838 837 837 837 836 837 838 840 841 840 840 839 838 838 839 840 841 841 841 842 843 842 842 841 841 841 841 840 840 840 838 833 831 829 828 827 827 827 828 826 825 823 826 833 831 836 845 846 844 842 840 840 840 841 841 840 840 839 837 836 835 835 834 833 833 832 832 831 831 831 830 830 830 833 836 839 842 842 842 840 839 839 839 840 835 831 832 831 827 824 822 822 821 821 821 822 822 823 824 824 825 825 826 827 828 830 830 830 829 829 827 827 827 827 827 827 827 827 828 828 827 826 825 823 824 824 824 825 825 825 825 824 824 823 824 824 824 824 823 823 823 823 822 822 822 821 821 821 820 820 819 819 819 819 820 820 821 821 821 821 820 820 819 820 820 819 819 819 819 818 818 818 817 817 817 817 816 816 816 816 815 814 812 812 810 808 804 799 795 792 789 790 790 790 790 790 790 790 790 790 789 790 793 796 798 801 806 810 814 820 824 825 828 827 826 824 824 824 824 823 822 821 819 818 817 816 813 810 808 806 804 803 804 805 808 809 810 811 813 815 817 819 822 824 825 825 826 826 826 826 826 826 826 826 826 827 828 828 828 829 829 830 831 832 833 831 831 830 829 829 828 827 827 826 824 825 827 828 831 832 835 836 837 838 839 839 834 830 830 832 834 834 835 835 835 834 833 832 831 831 832 832 833 834 835 836 837 838 838 836 836 836 835 834 835 834 834 833 832 832 832 834 836 837 838 838 837 837 837 838 839 842 843 844 844 844 845 845 846 846 847 848 849 849 849 849 848 847 842 838 837 837 837 837 836 837 837 838 839 839 838 838 838 840 842 845 848 850 853 856 857 859 858 857 856 856 857 859 860 861 861 860 858 856 854
849 850 850 849 849 849 851 852 853 856 856 858 859 859 860 860 860 860 860 859 858 857 857 855 855 854 853 852 851 850 850 848 848 846 845 846 846 848 848 849 849 849 847 846 846 846 845 845 844 843 840 839 838 838 840 842 841 838 833 828 828 828 827 823 818 815 814 814 816 818 822 825 828 831 832 833 833 834 834 834 834 834 834 836 838 840 841 840 840 840 840 841 841 841 842 842 842 843 844 843 843 842 842 840 840 840 840 840 837 833 832 834 834 828 827 826 826 825 827 828 831 833 831 834 840 839 838 839 839 840 840 841 841 840 839 839 837 836 835 834 833 832 832 832 832 832 832 832 831 831 832 835 838 840 841 841 840 838 837 838 837 834 828 825 827 826 825 822 821 822 821 821 821 822 822 823 824 824 825 826 826 828 829 830 831 830 830 829 828 828 829 829 829 829 829 829 828 828 827 826 825 824 824 824 824 824 824 824 824 825 825 824 825 825 825 824 824 824 824 823 822 822 821 821 821 820 820 820 820 820 820 819 820 821 821 822 822 821 820 820 820 820 820 820 820 820 820 820 820 819 819 818 818 818 818 817 817 817 816 815 814 813 811 809 806 802 798 794 792 791 791 791 790 790 790 790 790 790 790 790 792 794 796 799 802 806 810 815 818 820 824 824 821 818 817 817 816 816 816 816 816 815 815 814 810 806 804 803 801 802 804 807 810 810 810 812 813 815 817 819 822 823 825 826 827 828 828 828 828 827 828 828 828 828 828 828 828 829 829 829 830 831 831 830 829 829 828 827 827 827 827 826 823 823 825 828 829 831 833 833 834 834 835 835 831 825 825 829 831 831 831 832 831 830 829 828 828 829 829 830 831 832 833 834 833 833 832 832 832 831 831 831 831 831 831 832 831 831 832 833 834 835 835 837 837 837 835 835 837 839 841 841 842 842 842 843 843 843 844 845 846 846 846 846 844 840 837 835 835 835 835 835 834 834 836 837 837 837 836 836 837 839 840 843 846 848 850 853 854 855 855 854 854 853 854 855 856 858 857 857 857 854 853
848 848 848 847 847 848 851 852 855 857 858 859 859 860 860 860 860 860 860 859 858 857 857 856 854 854 853 852 851 851 850 849 848 847 845 846 847 849 850 850 849 849 847 845 844 844 844 843 842 840 838 837 836 835 836 837 837 834 829 828 828 828 827 825 820 819 814 814 815 817 819 822 825 826 828 828 830 830 831 831 831 832 833 836 837 840 840 840 840 840 841 842 842 842 843 843 844 844 844 843 843 843 843 841 839 839 839 838 836 837 837 839 838 831 830 828 827 829 831 833 834 833 831 832 835 836 836 837 839 839 840 840 841 840 839 838 837 836 835 834 833 832 832 832 832 832 832 832 833 833 833 835 837 838 838 837 837 836 835 834 832 829 823 822 824 823 823 821 821 821 821 822 822 822 822 823 823 824 825 826 827 829 830 830 832 831 830 830 829 830 830 830 831 831 830 830 830 829 828 826 826 825 825 824 824 824 824 825 825 825 825 825 825 825 825 825 825 824 824 824 823 822 821 821 821 821 821 821 821 821 820 820 821 822 822 823 822 821 821 820 820 820 821 821 821 821 821 821 821 820 820 819 819 819 819 818 818 817 817 815 815 814 812 811 808 805 801 797 795 792 791 791 790 790 790 790 790 790 791 790 791 793 795 797 800 803 807 810 813 816 819 820 816 813 811 810 810 811 812 813 813 813 812 812 807 802 799 799 798 803 806 809 811 811 812 813 813 816 817 820 822 823 825 826 828 829 830 830 830 830 830 830 829 829 829 829 828 829 829 829 830 830 829 829 828 828 827 826 826 827 827 826 822 820 823 825 827 828 830 831 830 830 830 831 827 824 823 825 826 827 828 828 828 826 825 824 825 826 827 827 829 830 830 831 830 830 830 830 830 830 830 829 828 827 829 830 830 830 831 832 832 833 833 834 835 835 834 832 834 836 839 839 840 840 840 841 841 841 842 842 842 842 842 842 839 836 835 834 834 833 833 832 832 832 833 835 836 836 835 835 835 837 839 842 844 846 847 849 850 850 850 850 851 851 851 852 853 855 855 854 853 852 853
